-3.202029895026152673e+01 -6.277434126949523829e+01 -5.977552172878303054e+02
-3.504816840678940792e+01 -6.519002455550320008e+01 -5.941891457984581848e+02
-2.308142707908812241e+01 -5.699766325164268466e+01 -5.968047608726611770e+02
-1.012723483954751913e+01 -3.085832105161782124e+01 -5.980213414713176689e+02
-1.009900275082729735e+02 1.021689745989418086e+01 -6.048023779690795436e+02
3.298832788065431032e+01 2.057073087803548006e+01 -5.962279903975585285e+02
-9.138274292303074731e+01 5.251356117404704094e+01 -6.024469795328221835e+02
-9.426710279761786637e+01 4.455631299040559412e+01 -6.015056098149400441e+02
-6.764089066136533290e+01 7.954599881373098924e+01 -5.960265888245000951e+02
-2.759328544431439667e+01 7.922181664315405669e+01 -6.018351747031675814e+02
-9.015943298743766832e+01 -8.402997249567043525e+01 -6.016632594880280749e+02
-1.202517449555050177e+02 -6.714350799439458228e+01 -6.025408689583109663e+02
-1.255292193665395217e+02 -6.023745566233674964e+01 -6.011614192567378723e+02
-1.270065734621381637e+02 -5.803059224665870630e+01 -6.028701036608298409e+02
-1.841562779182394749e+01 -5.451184140566981995e+01 -5.977023495906900052e+02
4.007485349122543283e+00 -3.813038676633308199e+01 -5.995744711445023540e+02
-1.290519548588983128e+02 -3.838732838617736576e+01 -6.025782664771996906e+02
-1.226354411687442969e+01 -3.100136948117281221e+01 -6.040535086278410972e+02
-1.187503690802363110e+02 -5.955561268176457368e+00 -6.034544785031715719e+02
3.253389910219237180e+01 1.191051259610281576e+01 -5.958325738882482483e+02
3.216267669782660477e+01 8.660634293070964773e+00 -6.022221467666635135e+02
-9.903845640955428564e+01 1.908447877264544346e+01 -6.039225910942976725e+02
-8.202032731043452429e+01 7.308902405459585339e+01 -5.951523794580475624e+02
-9.076033882827398713e+01 -8.370624291210214096e+01 -6.038936854695285774e+02
-1.046263430719309042e+02 -7.989905942405546568e+01 -6.035523115106119576e+02
-1.816898478691836516e+01 -5.447617856687232774e+01 -6.062974224834965753e+02
-2.367440647432945156e+01 -5.698767861516344624e+01 -6.047160680114017168e+02
-1.295246153894352972e+02 -5.092583120302682431e+01 -6.038857868228345751e+02
-1.286605152109747507e+02 -5.325086074545433235e+01 -6.010416575747009347e+02
-1.044402062266264011e+02 8.556354798949378448e+00 -6.016875893457305438e+02
3.125005030645686688e+01 3.496882024859642257e+01 -6.035965192788486320e+02
2.705330844992234063e+01 4.533343848695805178e+01 -6.010118175901423001e+02
3.058759461520098455e+01 3.773436225999148519e+01 -6.062431817128984903e+02
-8.741861601169117080e+01 5.507999394128918169e+01 -6.074998307998204155e+02
-8.422310239833764589e-01 7.273415198687440864e+01 -6.003068642374939827e+02
-4.902431983835881191e+00 -5.033309986120342217e+01 -6.014456203514216668e+02
9.948643702590698190e-02 -4.800622778729957219e+01 -6.036203911500022059e+02
-1.295385800079903902e+02 -4.738233506735265621e+01 -6.023121141996456345e+02
-6.753055203251857819e+00 -3.724625656142886498e+01 -6.069886310017294591e+02
-3.888822797043212098e+00 -3.652103997541249214e+01 -5.992112732076237762e+02
-1.189934882641745517e+01 -3.332746594192560963e+01 -6.010678762724994613e+02
-9.880866766645567623e+00 -2.880626722770899306e+01 -6.020814531736816662e+02
-1.063089636586949780e+02 5.599256119134770060e+00 -6.028018464055554659e+02
1.872541554852301005e+01 5.816114530554138184e+01 -6.088836795231468386e+02
-1.749070855841745953e+01 7.748031566635255274e+01 -6.028129196422191853e+02
-3.466583943573175475e+01 7.881040906093569731e+01 -6.081725918011558178e+02
-2.254359761207422608e+01 7.767965803917844880e+01 -6.084888878654588780e+02
-1.133027080069460197e+02 -7.431559398170871589e+01 -6.030634704377774824e+02
-1.235587573174958749e+02 -6.444539117082908319e+01 -6.065618877371722419e+02
-2.755774725281409232e+01 -5.865454197008713066e+01 -6.123159358010923370e+02
-5.695162834415034681e+00 -5.020895576794253401e+01 -6.091639502939882505e+02
-1.435606166345589685e+01 -5.310389198150399181e+01 -5.983934600561964317e+02
-1.353354727648900635e+00 -3.770095966632187867e+01 -6.037467089056716532e+02
2.095753501914823680e+00 -2.167632316649405766e+01 -6.073079852514470076e+02
9.043266375999941431e+00 -1.828524597182684630e+01 -6.076716411868487739e+02
-1.133377294648624485e+02 5.254364260655963736e-01 -6.029832688759853454e+02
-9.662072424989901265e+01 7.219774510517112276e+00 -6.107638669112586740e+02
-9.395968716772154039e+01 1.686622363246182488e+01 -6.106113358291135000e+02
-8.032106077841245906e+01 7.016376449403304605e+01 -6.050031069308347469e+02
-7.677530641510898590e+01 7.194527832503720788e+01 -6.081969272909690289e+02
-6.207005110270121406e+01 -8.076768024589179618e+01 -6.031684996955768838e+02
3.216279300431239996e+00 -4.562059814350045173e+01 -6.028973008197534682e+02
3.686802404508816355e+00 -4.173500044612463711e+01 -6.102037729662466745e+02
-1.031281623139182990e+01 -3.531346032305255278e+01 -6.029271824629664707e+02
2.326610333013061638e+00 -3.819719811833554246e+01 -6.097521463330384677e+02
3.472156058852650773e+00 -3.868752764849642034e+01 -6.030822446253208682e+02
3.544140075875917173e+00 -3.929777088877519020e+01 -6.085963618921284706e+02
-1.266337726011956732e+01 -3.318040442557375513e+01 -6.072220526452551894e+02
-1.292687379788431024e+01 -2.894539530175101305e+01 -6.086571937671770911e+02
-8.790050973293329406e+00 -2.579411285172469448e+01 -6.085305118873048968e+02
-5.211265495446708584e-01 -2.370899714969604943e+01 -6.009151412741241529e+02
2.337387304020008827e+01 -6.138986207121817529e+00 -6.140450369642830992e+02
2.720623825101526805e+01 -1.367012509665970654e+00 -6.071010748310442295e+02
-1.011404530611543962e+01 7.366307619124077632e+01 -6.131078939417898255e+02
-4.156014886671487574e+01 8.012857338521254746e+01 -6.016940278511756333e+02
-1.021330497368297756e+02 -8.050539786947446430e+01 -6.071517288801528593e+02
-1.116086407887708702e+02 -7.552548468959342642e+01 -6.069099804044971052e+02
-1.188606921475997780e+02 -6.966576706266627639e+01 -6.090059227318816966e+02
-1.257475385228210314e+02 -6.279511319709099126e+01 -6.098362120848095174e+02
-1.295715060601598054e+02 -4.003523761420530747e+01 -6.050029647514094222e+02
-1.277104742165642506e+02 -3.170138393791154030e+01 -6.107213253406282547e+02
-1.255573508567184717e+02 -2.348425108805444594e+01 -6.032585193290771031e+02
-1.210943028391617560e+02 -1.648804843535823750e+01 -6.154707559224232227e+02
-8.652925361356146539e+01 6.187590058045360308e+01 -6.048557666461298368e+02
-8.342442175173727037e+01 6.377853398149756714e+01 -6.080928309495863004e+02
2.348818252266116957e+00 6.935797861740879000e+01 -6.105107969578723441e+02
-8.484487011901068243e+00 7.509536541795758069e+01 -6.024439662792399304e+02
-6.419261399231679377e+01 7.815445589303753593e+01 -6.044581722237803660e+02
-7.140276985162716983e+01 7.528187118911421294e+01 -6.067552782085072067e+02
-9.459114132763193084e+01 -8.224453865240207051e+01 -6.090338282097480942e+02
-1.293286826517167469e+02 -5.486576629307074882e+01 -6.077759015989533964e+02
-1.349508141906146896e+01 -3.627371187478995296e+01 -6.147033164101230795e+02
-1.569932724218646314e+01 -2.888376728345144073e+01 -6.141402739307891352e+02
-1.261929384297898160e+01 -2.734233062377960266e+01 -6.104471040939589557e+02
1.447440202469294235e+01 -1.451794432671062829e+01 -6.069707204279297912e+02
3.263338569585857840e+01 2.732896855634125544e+01 -6.050030508837339767e+02
3.300178238775772854e+01 2.005899018695724934e+01 -6.050030515951176540e+02
3.327200067736927735e+01 2.995793675817475332e+01 -6.135355330078035649e+02
-9.203986598550392273e+01 4.227636641543245588e+01 -6.062621392414089314e+02
-8.676797913407391150e+01 4.626162489386658194e+01 -6.116614409787881641e+02
1.169476547994322857e+01 6.424077726974358882e+01 -6.086801761883642712e+02
-7.506286912968951697e+01 -8.205432616082477182e+01 -6.143684440361872703e+02
-1.049207286476203222e+02 -7.911570633496569371e+01 -6.094590143612059592e+02
-1.142418827970719093e+02 -7.348613785147905730e+01 -6.094209684746579114e+02
-1.275781712052260559e+02 -5.942402131537358656e+01 -6.092586831281746527e+02
-1.285217150299174591e+02 -5.725820707709976887e+01 -6.108255076043999452e+02
-1.047557695930532606e+00 -4.645110864121109273e+01 -6.164718139430705151e+02
2.715196058523252631e+00 -4.500271861279401975e+01 -6.082000467386064884e+02
-1.302735516816621271e+02 -4.350258568339128828e+01 -6.105796265024347349e+02
-1.298314030008210409e+02 -5.206782065191281106e+01 -6.108004304211158342e+02
-1.302955261165019749e+02 -4.677968878539149244e+01 -6.093036048848736073e+02
-1.081485821568904937e+00 -3.761280506697337955e+01 -6.084078655315355491e+02
-7.094772307445711412e+00 -3.739979851757983198e+01 -6.130119723436255299e+02
-1.151937351527008104e+02 -2.399166887099692946e+00 -6.066665404453309520e+02
-1.003372300128122561e+02 4.012241853138093006e+00 -6.096230512137575488e+02
-1.023404495783572514e+02 2.217802481563338368e+00 -6.103944720371340509e+02
-9.452468940935843023e+01 2.535828506032746787e+00 -6.152394016871970734e+02
3.250754337420312368e+01 1.082993909481634631e+01 -6.069213959144645969e+02
3.337563727052292251e+01 1.344515918943933741e+01 -6.133688773403767982e+02
-9.510636616882888461e+01 2.141983533650974536e+01 -6.083260676637125925e+02
-9.037203265560555110e+01 -8.155242877329662576e+01 -6.161343099841847106e+02
-8.255069155080842336e+01 -8.333392267328781600e+01 -6.074396538534534784e+02
-6.057864704028084191e+01 -7.841134532755572195e+01 -6.171323214699328901e+02
-6.560699553865357814e+01 -7.969709406808952679e+01 -6.188317088130448838e+02
-1.240396228985173508e+02 -6.458641231130808080e+01 -6.112120381069636323e+02
-1.547359354104708729e+01 -5.326656957045405250e+01 -6.127745650962033324e+02
-1.061567260830452675e+01 -3.617674734063871966e+01 -6.091603603187276121e+02
-1.115924971300194457e+01 -3.706252130286141977e+01 -6.144007892265381088e+02
5.473841087310244546e+00 -1.901839438627185430e+01 -6.138860392461501760e+02
1.537510282015523266e+01 -1.322605335637143753e+01 -6.152672643490201381e+02
-9.793716147455918986e+01 1.915964020001502899e+00 -6.131074321355869188e+02
3.072170459690843813e+01 4.349261825968609330e+00 -6.140717676560431073e+02
-8.996047406791957712e+01 2.544566320216423350e+01 -6.130896054134881297e+02
-9.287818586750724137e+01 3.228258828219335896e+01 -6.080600579005445070e+02
-7.397393524937112375e+01 -8.334174236286891357e+01 -6.042063176737965478e+02
-1.085268368710617324e+02 -7.691606890039358291e+01 -6.114602601750415261e+02
-1.288817593851922823e+02 -5.489496531580749661e+01 -6.153602755976124854e+02
-1.302770741228357849e+02 -4.720193741354056272e+01 -6.136011137068194330e+02
-1.298246807043305751e+02 -3.949067770354251650e+01 -6.142651771689751286e+02
-2.032328455711044590e+00 -2.250640777410541205e+01 -6.107453736876020685e+02
-9.721733409708890861e+01 8.654161377821908419e-01 -6.154528147637248594e+02
-8.639387451734309309e+01 3.522003505783777655e+01 -6.149979852544772712e+02
1.663635505747729226e+01 6.032977264277111118e+01 -6.155044470529782075e+02
-5.464791003870988817e+01 7.968582935324006655e+01 -6.028421828783644969e+02
-1.167719284485624343e+02 -7.055881210029232875e+01 -6.135685387744662194e+02
-4.090693654761433606e+01 -6.713353297398415975e+01 -6.134523550061187507e+02
-4.490529326514018926e-01 -3.726966156128864327e+01 -6.139557855514799485e+02
2.838182295207182015e+00 -3.825994813651998783e+01 -6.130797654548355240e+02
1.988321128608564470e+00 -3.939958217577505906e+01 -6.194063474923985950e+02
-1.134481394835835655e-01 -3.697222370986044382e+01 -6.186236317456952065e+02
-1.018704141487043842e+02 7.264013468169380205e-01 -6.132666702815550934e+02
2.728930454738802780e+01 4.644711269418763777e+01 -6.106032208598213629e+02
3.112711192982626329e+01 3.846411348350993364e+01 -6.129211117066670340e+02
-6.886447349398530093e+01 7.258286968310325449e+01 -6.155584193155876847e+02
-9.550925365930554278e+01 -8.055564127565250487e+01 -6.191023024988429597e+02
-9.791769283189422879e+01 -8.057357974905666254e+01 -6.148870163415710977e+02
-1.250500732713588263e+02 -6.218406826984085001e+01 -6.150031637610086364e+02
-6.911097538495102555e+00 -3.731127901860050144e+01 -6.187322019397761323e+02
-1.253442676477349664e+02 -2.396396449026515185e+01 -6.115162953915470325e+02
-1.235815918004500844e+02 -2.189835923690589681e+01 -6.175022258844983298e+02
-1.372489953912235094e+01 -2.407652555761079682e+01 -6.178193751212065763e+02
2.421248414419961748e+00 -1.976339054219803870e+01 -6.166096205331102738e+02
9.539716815251374271e+00 -1.682032530827879313e+01 -6.155390978943383971e+02
-1.170686218274804276e+02 -6.601971921366628138e+00 -6.105250057572942524e+02
-1.145611070382220191e+02 -3.376968611515022367e+00 -6.100422775897999372e+02
-1.110526131463783486e+02 -3.050064072207367971e-01 -6.082133714023823359e+02
-1.014904609771572979e+02 -7.798657607327881269e-01 -6.171276187052551450e+02
1.027160600840678306e+01 6.473690832902778425e+01 -6.157396829912954672e+02
-2.558720610914813065e-01 6.882549218039750372e+01 -6.210902379977140981e+02
-1.066366291641245425e+02 -7.764288316280912738e+01 -6.150239499532458467e+02
-1.160374955248234841e+02 -7.065911461776400415e+01 -6.158261821414978385e+02
-1.200837621017233374e+02 -6.669582124935854495e+01 -6.160860929920960416e+02
-1.260968003079763236e+02 -6.046272009801945302e+01 -6.169081744622984615e+02
-1.292601027540241319e+02 -5.290925573215888278e+01 -6.180629959496711763e+02
-1.299390591993122825e+02 -4.896524756914842413e+01 -6.171174006673438726e+02
2.000744017623830473e+00 -3.784398320861501475e+01 -6.156496121231087955e+02
-1.637212932963672785e+01 -3.204398454780366023e+01 -6.145074587867842411e+02
-9.448468232410196066e+00 -2.324615890602274604e+01 -6.154804869158773499e+02
-8.482667875604704477e+01 2.149885589701268174e+01 -6.187670044052090361e+02
-1.147863688997667140e+02 -7.178875127813635970e+01 -6.169670915553505210e+02
-4.409950283694175255e+01 -6.800002684949561171e+01 -6.234760219958950529e+02
-1.223933783057112237e+02 -6.450073266098065972e+01 -6.169427653951601087e+02
-2.180886761848126554e+01 -5.572906081698646119e+01 -6.121246185151138661e+02
-1.535688733878918555e+01 -3.448266516378351554e+01 -6.144905537529770072e+02
-1.833064657484616689e+01 -3.462357762991690890e+01 -6.229749636580196466e+02
-2.039861250897932266e+01 -3.202569984506612855e+01 -6.216326404539554460e+02
-1.116145980875324426e+02 -6.366491501760567218e+00 -6.198436006423031586e+02
-1.143324243645349867e+02 -1.151933306750535380e+01 -6.232470608539447312e+02
-9.072293685307991495e+01 5.687736295556988786e+00 -6.164596968024508215e+02
-8.788368907942258090e+01 1.174948422002359827e+00 -6.203447774364088900e+02
3.086773410713257348e+01 4.243059265872298624e+01 -6.240911396401528464e+02
2.753557635783391788e+01 4.746743567929895846e+01 -6.169496201343526991e+02
-8.009204553730224063e+01 5.944069404791102329e+01 -6.148424752648890035e+02
-8.231531095004463339e+01 4.068753459123734473e+01 -6.184821523573605191e+02
1.831970267809003872e+01 5.826794120065557792e+01 -6.237899568688585532e+02
-1.354097022981265397e+01 7.272502660215658921e+01 -6.222425705778690599e+02
-5.003011162184506588e+01 7.693650582135782656e+01 -6.139031792128517964e+02
-5.410222962202849573e+01 -7.534877193829294129e+01 -6.157237156179284057e+02
-1.258891931106633137e+02 -6.208816138998220424e+01 -6.224966834873926018e+02
-1.836916080303664955e+01 -5.330574262580933009e+01 -6.231993079194030543e+02
2.398821293062301852e+00 -4.293229908009549689e+01 -6.154967618629146955e+02
-1.296619287201722557e+02 -3.964389611731705543e+01 -6.177350592974639767e+02
5.087273913447623919e+00 -1.849537475279472432e+01 -6.239221444128293115e+02
2.173634574525657115e+01 -8.847957582279878608e+00 -6.265792312057868685e+02
-9.149539542749806742e+01 -8.953070650566130606e-02 -6.198525994839012583e+02
2.771585182379699575e+01 -1.034315149487605723e+00 -6.141982359937994715e+02
3.376633195181633340e+01 3.499413820915963669e+01 -6.241695288929601020e+02
2.188764178802970761e+01 5.499807748700601451e+01 -6.160092575288275611e+02
-7.502172629029637108e+01 5.719490363560054647e+01 -6.219397495851757185e+02
-5.803448276834723174e+01 7.168530355308213586e+01 -6.246527852406676402e+02
-6.397722124617762773e+01 7.579592886467030155e+01 -6.128551543485438060e+02
-3.040411040101475493e+01 7.525994301148220700e+01 -6.212678771086835923e+02
-3.807983738837440768e+01 7.476088756938868585e+01 -6.219042898057286948e+02
-3.296051155576968483e+01 7.694777301817264004e+01 -6.156554608133468491e+02
-2.157827708791565868e+01 7.428775701224358841e+01 -6.223456947689661547e+02
-1.046556909643892226e+02 -7.838671124772982068e+01 -6.181902788762167802e+02
-1.031042550485699678e+02 -7.841403874864600709e+01 -6.214735712425461998e+02
-1.080005721216195838e+02 -7.667314925659411529e+01 -6.225386006024004928e+02
-1.091537745552209060e+02 -7.616667782076478943e+01 -6.206196003980173828e+02
-1.142476789692990309e+02 -7.366864773810557665e+01 -6.226806128095803388e+02
-1.174529912847032449e+02 -7.111252764233411483e+01 -6.211481412674194189e+02
-1.231953994397078844e+02 -6.623116075039098405e+01 -6.223555406708665032e+02
1.963931983161137929e-02 -4.287835816515465126e+01 -6.257795981338865658e+02
-1.495820600906137443e+01 -3.632506071951470972e+01 -6.224298707642627733e+02
-6.211468076217352419e-02 -3.718032067071793279e+01 -6.215959547877153000e+02
3.155755397488164693e-01 -3.840782521497195745e+01 -6.251145573923449774e+02
-8.007038496851386356e+00 -2.072433187890784367e+01 -6.219608020791901026e+02
-1.240872789621130750e+02 -2.828005267522960864e+01 -6.256198630847878803e+02
-1.196439465533653248e+02 -2.037187931368633897e+01 -6.254481896417291864e+02
-1.059023725985082933e+02 -9.769011304865806711e-01 -6.155052098720557296e+02
-1.087127861863761780e+02 -3.257772766770014261e+00 -6.176767031714482528e+02
-7.479606550658640174e+01 6.832661733743046284e+01 -6.146471602600267943e+02
-7.140948313945631298e+01 6.263108301286890622e+01 -6.235143108580252829e+02
-2.113597598254197152e+01 7.614277025225666762e+01 -6.151817649637501972e+02
-8.585119990159115844e+01 -8.031138781835578300e+01 -6.225116865527280652e+02
-3.495762691489644691e+00 -4.674260055405282799e+01 -6.250477569287331789e+02
-2.473021126959050164e+01 -2.977561260130217846e+01 -6.256783504179112470e+02
-2.040764505056318967e+01 -2.897888644030941308e+01 -6.204974888858788518e+02
-2.286563402504645026e+01 -2.469841853209826965e+01 -6.242472622498557939e+02
-1.842845178318346555e+01 -2.289998422747073192e+01 -6.226990840503959816e+02
-1.923631140199038825e+01 -2.604065655888629038e+01 -6.203943214206591392e+02
2.632860200564997655e+01 -4.028094709724840072e+00 -6.272405154680841406e+02
-8.960457173982435108e+01 -2.093931356192658022e+00 -6.240489849237363842e+02
-8.239843626649901864e+01 3.686096785984763535e+00 -6.231950350282801310e+02
-8.752901068494216474e+01 1.157186439604715389e+01 -6.177519228864907745e+02
3.404137665614005925e+01 1.770759865583999826e+01 -6.175363394887218647e+02
-1.213044145620858103e+02 -6.852335901247518279e+01 -6.235020492967655628e+02
-1.262347697534248425e+02 -6.079182798956362177e+01 -6.242039245186045946e+02
-1.262662287919876860e+02 -2.929240606838872907e+01 -6.186005066194530855e+02
3.134673021161568229e+01 4.220829700200307677e+00 -6.229646272261837794e+02
-8.507256992033615006e+01 -3.785703602613806895e-01 -6.227783634647709050e+02
-8.514535828688711661e+01 -1.301613654162151246e+00 -6.236319669488590307e+02
-8.429741126668413642e+01 6.483461195889078654e-01 -6.225639091514899519e+02
-8.458250756635845846e+01 1.408262749415819748e+00 -6.221673726922871310e+02
-6.901208462552727951e+01 6.789878856255718631e+01 -6.219154553659415114e+02
-6.314577692505969964e+01 7.324546588471999087e+01 -6.199611089661018468e+02
-1.152014650976703933e+02 -7.271457273833401302e+01 -6.243045948024322342e+02
-6.025497077323264961e+01 -7.713322623324214078e+01 -6.243652635315393127e+02
-1.291065773507663721e+02 -5.232691198442960712e+01 -6.249082029906944626e+02
-2.512781079872857148e+01 -5.648125274985791577e+01 -6.223527895266646510e+02
-1.295548326219407329e+02 -5.162004029185403198e+01 -6.230150391032176458e+02
-1.297974499992663482e+02 -4.151678011213428476e+01 -6.232547720863727818e+02
-1.296209420447032983e+02 -4.285753578163755151e+01 -6.249335880789335533e+02
1.600507458357400603e+00 -4.236824955972699769e+01 -6.206129867504020012e+02
-1.274725805038802804e+02 -3.496941236260460784e+01 -6.245920558263684370e+02
-1.028429874189137649e+02 -3.628498048963085587e+00 -6.240586388700492080e+02
-8.373539368957867168e+01 1.153822738695859496e+00 -6.228130075537344510e+02
-7.748280633270044859e+01 2.063094172927020153e+01 -6.249574120856400441e+02
-8.043885949728100115e+01 2.269133822256123878e+01 -6.225968633329223394e+02
-7.812835073345813441e+01 4.299713725401606723e+01 -6.226775904070487968e+02
-7.336887842207198673e+01 4.417304621218653438e+01 -6.275330772537919302e+02
2.282095530499675107e+01 5.303408961470651661e+01 -6.312312297226056899e+02
-2.816363466888296685e+01 7.246448722366648099e+01 -6.271529926196875522e+02
-9.601643743688842392e+01 -7.922795176291620578e+01 -6.234343784336339240e+02
-7.325524634873663388e+01 -8.075381319122556079e+01 -6.206669835878718686e+02
-5.391440543341865776e+01 -7.420702175710472659e+01 -6.233824526354508180e+02
-7.399877387661092598e+00 -3.652931839162990713e+01 -6.288373737165675266e+02
-1.019511831006308533e+01 -3.708433985657334375e+01 -6.226658553741656306e+02
-1.347682125635776451e+01 -2.085857721490596361e+01 -6.241305179337955451e+02
-9.003434832762076212e+01 -3.068796410394710072e+00 -6.272281922577064961e+02
-9.541563785093234173e+01 -1.693627108692714822e+00 -6.220641065972362185e+02
-8.283727248138499988e+01 -4.285743929854184397e-01 -6.244905328187943496e+02
-7.593573946815166664e+01 -1.447866874981323715e+00 -6.270666632005727479e+02
-8.252115355156399801e+01 9.652010401020147512e+00 -6.220382157631779592e+02
3.500477424746403443e+01 2.230111690522881318e+01 -6.233350689776981426e+02
-9.012892966366864300e+01 -7.765320553635037015e+01 -6.309249484627747506e+02
-9.895965760325059080e+01 -7.683406193511503091e+01 -6.293621082845893397e+02
-1.049079939570585793e+02 -7.718252965810806643e+01 -6.240958553410024479e+02
-1.203557753674725461e+02 -6.872132020607317315e+01 -6.251881300448280854e+02
-3.320761069718631830e+01 -6.122283493603389104e+01 -6.221602446872210521e+02
-2.380691053413315927e+01 -5.509706247916790289e+01 -6.294620677918500178e+02
-3.131952811361497169e+00 -3.700924587278323941e+01 -6.305337636590127204e+02
3.470727954785809999e+01 2.812983996066204639e+01 -6.233842470830337561e+02
2.607833206739494258e+01 5.017173742215032917e+01 -6.242191151059653293e+02
2.805474884881044773e+01 4.719891360494211341e+01 -6.318168981222762568e+02
-6.560437538391424539e+01 6.445401108745106455e+01 -6.280913338603485272e+02
-5.191669083369796311e+01 6.654146194397648628e+01 -6.338742221928260960e+02
-4.037310745671819490e+01 7.054143444413708153e+01 -6.293803787811459642e+02
-8.620765529651295367e+01 -7.846764163693801208e+01 -6.292833784185626200e+02
-5.544508281106615044e+01 -7.377890969622389150e+01 -6.302703049974759324e+02
-3.436453049207167254e+01 -6.091781110816802425e+01 -6.327016531087302837e+02
-1.254357740454954353e+02 -5.830580449532041598e+01 -6.303766157238918595e+02
-7.865036469942787711e+00 -4.877548868198277887e+01 -6.255810813000844064e+02
-3.552495785605042311e+00 -4.527340696551102894e+01 -6.297540060048112309e+02
-1.898949934659308614e+00 -3.714253802306729568e+01 -6.261008456111781015e+02
-2.762773001007363760e+01 -2.824969560904846588e+01 -6.276783880013981616e+02
-2.601536898636947726e+01 -3.140549452055023494e+01 -6.303321592967204197e+02
-3.407915900223994043e+01 -2.607378886502611692e+01 -6.303937746267690727e+02
-2.728190147637981156e+01 -2.403548733519609115e+01 -6.270764631922417038e+02
-2.178179243985658076e+01 -2.126002027350885015e+01 -6.261539687520842108e+02
1.061587128227590604e+00 -1.981045999208778596e+01 -6.308256438936224413e+02
-6.858033993042762688e+01 -7.888920504019187874e+00 -6.300060741141580820e+02
-7.894420461176042636e+01 -4.368106825523890180e+00 -6.289400290901188555e+02
-8.489512233620922643e+01 -3.049334354706551231e+00 -6.265208982296102249e+02
-7.406901465780624960e+01 1.792839360219324218e+00 -6.273097317618578472e+02
-7.351782581447228893e+01 1.427164228332005536e+01 -6.269951710203819175e+02
-6.618905665936566152e+01 1.168615902927289696e+01 -6.308131957773272234e+02
-7.036257716491809333e+01 2.197698743089365081e+01 -6.304703613372399786e+02
-7.470509490445735423e+01 2.434914467656951942e+01 -6.273276249088460190e+02
-7.630760376156908364e+01 3.322810028653002945e+01 -6.256226011197014714e+02
2.264256168785234724e+00 6.628843732554385326e+01 -6.296281298750604947e+02
1.100520008962205765e+01 6.331224061360809685e+01 -6.234137688672100239e+02
-4.593835245468646633e+01 7.509009032121005589e+01 -6.201951651882184251e+02
-1.278468625667643863e+02 -4.528347324330847812e+01 -6.313659727930513554e+02
-1.265830173258909639e+02 -3.692184611843113373e+01 -6.311173176453162341e+02
-5.517048368804688607e+01 -1.298347756309397916e+01 -6.312592017350630158e+02
-5.706541889040850890e+01 -8.496530649059629070e+00 -6.303498049529936225e+02
-6.547331356806951419e+01 -5.233784785302860953e+00 -6.292693192323107496e+02
-6.375058886161926353e+01 -1.641328557948837696e+00 -6.292365964106418232e+02
-5.893300389449954224e+01 6.715276577511779532e-01 -6.315743864157899452e+02
-6.364983135527173630e+01 6.965396294452621362e+01 -6.248006042006514917e+02
-7.271898518690387903e+01 -7.438126378613806367e+01 -6.436427904205150980e+02
-7.356471333111758781e+01 -7.914341511099009097e+01 -6.271687320898223561e+02
-1.081327756178447004e+02 -7.259348946616738374e+01 -6.326685067174397545e+02
-1.067956520017955455e+02 -7.334869536900333742e+01 -6.309890401974597580e+02
-1.211338930736679629e+02 -6.507862839599226845e+01 -6.295012796160103790e+02
-4.331476427314351696e+01 -2.192080701115575181e+01 -6.323849280783504128e+02
-3.397995725487274399e+01 -2.089605376167706652e+01 -6.298893865787174491e+02
-4.397466449175652770e+01 -1.786975677893103054e+01 -6.316730280500121353e+02
-5.197074050303935167e+01 -1.691880388179916039e+01 -6.322353876578829386e+02
-9.332392561072719417e+00 -1.958828550338004959e+01 -6.283623039103147221e+02
-1.304318988207965901e+01 -1.925164699004339752e+01 -6.318794470490239519e+02
-2.603688014011923713e+01 -1.796379016473988344e+01 -6.299145003618668852e+02
-2.896024839827655839e+01 -1.898463431947959990e+01 -6.294525954825023746e+02
-2.097414329824232837e+01 -1.816337145825752941e+01 -6.301121896461795586e+02
-3.830102930967412078e+01 -1.592621342166280662e+01 -6.314631359844399867e+02
-3.601616957397464347e+01 -1.360344095234245643e+01 -6.328349717568414690e+02
-5.435663355504159711e+01 -7.541616302955745255e+00 -6.311192316414998231e+02
-4.393673277669635979e+01 -1.075036444470681296e+01 -6.326440737077325593e+02
-4.593380706516174428e+01 -1.372091927204498774e+01 -6.315148598382812679e+02
-7.999371727500356144e+01 -5.976385761249428441e+00 -6.312884813101345571e+02
-8.043044984125127428e+01 -6.757337901121543311e+00 -6.341988814357713409e+02
-1.039450396375097228e+02 -7.258926483651467976e+00 -6.312108953499468953e+02
-9.822942676670169249e+01 -3.527541763797175101e+00 -6.275803727681025066e+02
2.995791408690336866e+01 1.324740235231826713e+00 -6.273805950737809098e+02
-6.655052456495567981e+01 5.940179242397879200e+00 -6.295725782413362595e+02
-5.894536840035742387e+01 4.179956327524762649e+00 -6.340842762430626181e+02
3.313624289416640778e+01 1.149542948709317791e+01 -6.270276522266059374e+02
-7.238975089847923527e+01 2.934811349179157958e+01 -6.296128657793215098e+02
-6.708128457275871881e+01 4.033740314139522098e+01 -6.345768570700181499e+02
-6.924993438426550085e+01 3.283822742706695408e+01 -6.327765717828390279e+02
-6.198890352785519298e+01 5.671847077383407054e+01 -6.353158373274670794e+02
-1.603584796915685118e+01 6.796001493889406220e+01 -6.358333721723813596e+02
-1.867791920704192776e+01 7.188864178434678820e+01 -6.278038526945596232e+02
-8.496970379713957300e+00 6.918133674764310115e+01 -6.299567240074828760e+02
-1.127563537347355123e+02 -7.151010140690017636e+01 -6.297318136702075435e+02
-1.206444383045591309e+02 -6.448864838987918802e+01 -6.315587868359708636e+02
-1.252483258422728198e+02 -5.792650104289857182e+01 -6.326941769649979506e+02
-2.407184184524515658e-01 -3.960986264515727129e+01 -6.292930747817447354e+02
-1.275982292789963068e+01 -3.571489777593061632e+01 -6.339519041250434839e+02
-1.208185048436385074e+02 -2.609719904859888473e+01 -6.308292924409838633e+02
-3.568657293640846007e+01 -2.720667186763657952e+01 -6.319393376311157908e+02
-6.617840504718583361e+01 -1.170209367793951216e+01 -6.321827332950585969e+02
-3.927182588200327729e+01 -1.061067434563525680e+01 -6.353128402271034929e+02
-5.275558318889444820e+01 -4.206866423152847645e+00 -6.331719841177873604e+02
-4.314249310888536115e+01 -8.981011106677568634e+00 -6.340327118619206885e+02
3.442049259771562930e+01 3.467114479640740399e+01 -6.298279202999852942e+02
3.500617055979223835e+01 2.506052469277985395e+01 -6.310001851617312241e+02
3.186634763656034153e+01 4.077971629293337230e+01 -6.321886905522992492e+02
-5.749494368731844673e+01 6.632715553797412156e+01 -6.324166111249675168e+02
-2.632198061774218090e+01 6.939838851081545101e+01 -6.330290508883014127e+02
-8.334082785463297682e+01 -7.469936496925751612e+01 -6.420733849044771659e+02
-4.444103840540717698e+01 -6.724050134457067429e+01 -6.306390055040513971e+02
-2.313415803058198961e+01 -5.390531817464663078e+01 -6.375111233642080606e+02
-1.273857218958053750e+02 -5.145077625735753912e+01 -6.314106026250206014e+02
-1.878552790946080187e+00 -3.817651400117672011e+01 -6.328715120164162045e+02
-1.799209575177222575e+01 -3.511262655679252020e+01 -6.302201245946138215e+02
-2.969447343594866950e+01 -3.145813140789312357e+01 -6.366217991627382844e+02
-3.436867306736940719e+01 -2.908813081340774076e+01 -6.337896277492261561e+02
-4.356939022791251404e+01 -2.388352124623069273e+01 -6.338951833148431660e+02
-2.582400169258260902e+01 -1.597126123878213910e+01 -6.328599908139849504e+02
-2.178837636180761095e+01 -1.649372578630254793e+01 -6.352753260813503857e+02
1.720009824022132250e+01 -1.333353355039570509e+01 -6.319019704267783482e+02
-7.183841741758759269e+01 -1.031272229965098042e+01 -6.356208722008433369e+02
-8.709439572228789928e+01 -4.755079203913093799e+00 -6.355004620300605893e+02
-6.382683688410834577e+01 1.382269740721385531e+01 -6.332304627175205951e+02
-4.108412765179598836e+01 6.455964248562851537e+01 -6.382118719153668280e+02
-3.425537403640299772e+01 6.818058600652125278e+01 -6.339979959065786943e+02
-9.778709171237530029e+01 -7.572977956432136182e+01 -6.326788333968185043e+02
-1.192877687300655936e+02 -6.572252121562172533e+01 -6.328252857779360738e+02
-1.274057810291755430e+02 -4.891776098845289766e+01 -6.335017388356556012e+02
-1.489543007032315902e+00 -4.158587099632246975e+01 -6.319020771828280658e+02
-1.181349146316808998e+02 -2.780259243532106339e+01 -6.369305206329091789e+02
-4.188642652001956890e+01 -2.599639278493146222e+01 -6.359126442141944153e+02
-1.446481076321458481e+01 -1.963167549559416969e+01 -6.368432795577284651e+02
-7.715605044555907455e+00 -2.090769977208370278e+01 -6.366726948824755254e+02
-2.887434580550031216e-01 -2.129764107955901764e+01 -6.360868078041827403e+02
8.853215251363932836e+00 -1.776088971427298446e+01 -6.312665856856900746e+02
-6.777118825498398280e+01 -1.205658811259902485e+01 -6.335043899166646497e+02
-5.409828028176159620e+01 -1.831345423206352407e+01 -6.339741397276467296e+02
1.853065582453366744e+01 -1.302733194878740974e+01 -6.347853305324342728e+02
-6.763229979667502789e+01 2.426010934906179628e+01 -6.336079790578411348e+02
3.482758798616711715e+01 3.168808924987043341e+01 -6.339404601962489778e+02
-6.456152528507271882e+01 4.721763212628252404e+01 -6.361350755762375684e+02
2.073125761573647452e+01 5.124364969916157264e+01 -6.433524433238541178e+02
1.649422236476289783e+01 5.869491134491698148e+01 -6.305549217072368720e+02
1.480091334441276629e+01 5.816091666496455304e+01 -6.375419006687649244e+02
-9.070705338086699498e+01 -7.543091727319072959e+01 -6.372560485711932188e+02
-1.264910148636393643e+02 -5.315384758696907852e+01 -6.360502306109722213e+02
-1.262939723555794558e+02 -3.807309568101102570e+01 -6.334828236473392735e+02
-1.109152340743450083e+02 -1.306848971669434256e+01 -6.308509177295781001e+02
-8.545990232195491387e+01 -4.681030026184656911e+00 -6.369565474772632570e+02
3.245702675054569397e+01 8.905624529736865469e+00 -6.330212882731088939e+02
-6.474831133620460832e+01 3.047264584879978599e+01 -6.375644646902875365e+02
-1.138587749225762877e+02 -6.801625886639284602e+01 -6.381394832184731740e+02
-1.100918816876888826e+02 -7.088472908627191771e+01 -6.353427985438013366e+02
-3.943824754060165816e+01 -6.273185646542613370e+01 -6.418724287310532191e+02
-5.335884724552457214e+01 -7.045389694956702442e+01 -6.401966645510456146e+02
-3.941504013050149524e+01 -2.744900871201664927e+01 -6.385530976643754002e+02
-5.570673994546525165e+01 -1.868684679149972183e+01 -6.367709126281796443e+02
-5.779816475306839152e+01 -1.767508007055390706e+01 -6.355406583169647092e+02
-3.083523521135363055e+01 -1.363703363728612317e+01 -6.382987267737033790e+02
-2.976799292082804982e+01 -1.364970753857838126e+01 -6.350773693262227653e+02
-1.009587069810839779e+02 -7.297738590791124302e+00 -6.375306186591997175e+02
-9.804707345435778620e+01 -5.137696419658493774e+00 -6.341688691094356045e+02
2.921565170441941817e+01 2.232349064926248516e+00 -6.437074774956957981e+02
3.234478330639922916e+01 1.212362262577051197e+01 -6.401473747077618555e+02
-6.116840909769921808e+01 1.067026262555470240e+01 -6.349392585691050499e+02
3.396573601970047207e+01 2.201895612816457515e+01 -6.388018270653034278e+02
-5.294722986900918471e+01 6.187087716466706411e+01 -6.381816260940078109e+02
-4.707814745677639934e+01 6.340512983851996154e+01 -6.387287566347212078e+02
-1.191139206711846015e+02 -6.508885007473777762e+01 -6.360150029319510168e+02
-1.196861905855432866e+02 -6.382258139312686751e+01 -6.380834951008274629e+02
-1.232392035279994218e+02 -5.947296792412895883e+01 -6.361835165302583164e+02
-1.871146752743072739e+01 -5.021728518629639382e+01 -6.448414339774113841e+02
-1.772527091595279813e+01 -5.207153559193309889e+01 -6.311368380378584106e+02
-1.928789945214356294e+01 -3.477275771792900372e+01 -6.356100266320142964e+02
-6.623564036128395571e+01 -1.207279872969498591e+01 -6.381028335145384744e+02
2.178165797737831610e+01 -1.092104996410283668e+01 -6.378542620958924090e+02
2.649118581388849236e+01 -4.594588535174554345e+00 -6.406605848637531153e+02
2.401788792133529071e+01 -7.701370118258385133e+00 -6.350599999442148373e+02
-9.292460376051057835e+01 -4.372978219304136438e+00 -6.359877432182689745e+02
-5.055124066555534057e+01 -4.068746944546634658e+00 -6.354904551206959695e+02
2.965835237445397610e+01 1.208757358192467102e+00 -6.339966225237657227e+02
-6.223097053770002418e+01 4.886005031250384434e+01 -6.378728855460460636e+02
-1.078248092891496412e+02 -7.110282781522771245e+01 -6.378839013555596011e+02
-1.101090118177485380e+02 -6.818608759216300541e+01 -6.441873928461699279e+02
-2.831574169074227498e+01 -3.197153877506824671e+01 -6.436216669041349405e+02
-5.792698938631788863e+00 -3.639892201675122152e+01 -6.363060903328267841e+02
-1.832800243007523022e+01 -3.463320425696264238e+01 -6.418302235870775121e+02
-1.240808563736432433e+02 -3.661173416392910696e+01 -6.362045704116726483e+02
1.359255458109855041e+00 -2.593213960601629253e+01 -6.446774357498213703e+02
6.725223315721035711e+00 -2.005591077808389500e+01 -6.356873183575715984e+02
1.529839201460526077e+01 -1.627371427612191823e+01 -6.366917510747123288e+02
1.885052486964555385e+01 -1.600470504162586494e+01 -6.435471599345162304e+02
-6.084069757448772009e+01 -1.595731292876604179e+01 -6.366297850718012796e+02
-5.830071724698263580e+01 -1.579739651792210609e+01 -6.406005271496546811e+02
-7.801492650327250544e+01 -3.464127547501513860e+00 -6.417491272570516685e+02
-7.829073965201237684e+01 -7.378146920294650357e+00 -6.356863195185139830e+02
-6.128391957668375767e+01 1.318621292564538550e+01 -6.397228515061547114e+02
-6.261163926962519355e+01 1.778343102431540146e+01 -6.375965457787012838e+02
3.376475117280009641e+01 3.129437528358327469e+01 -6.407233545897590830e+02
2.672931234703286663e+01 4.664702039891704999e+01 -6.395625798389928605e+02
-5.905841618691476214e+01 6.243598772291201726e+01 -6.348488258460384941e+02
-5.700706851951874654e+01 5.814092003811988718e+01 -6.384724293239719373e+02
4.824022076032898454e+00 6.357460371080519934e+01 -6.371360147799259721e+02
-3.919941364143958396e+01 5.970788935953982701e+01 -6.450416253976894723e+02
-2.491541369641658932e+01 6.605167634554581468e+01 -6.384602110005794202e+02
-6.075067389920990735e+01 -7.560945225569159334e+01 -6.329182310174197710e+02
-6.364682740104768044e+01 -7.320430839651595534e+01 -6.438165795395202622e+02
-1.164812522926521297e+02 -6.457080892393288707e+01 -6.431670117286267896e+02
-3.234694431046192875e+01 -5.851438103525263301e+01 -6.433655582393804480e+02
-8.313772375739867826e+00 -4.583723381217443205e+01 -6.377172362054740233e+02
-8.507078034321981619e+00 -4.387327235989021545e+01 -6.440235265897863428e+02
-6.355905728599896776e+00 -4.082388273265414114e+01 -6.442090392952370621e+02
-1.256081873902060977e+02 -4.513337876900501300e+01 -6.369505236856895181e+02
-3.576902892188372096e+00 -3.930959413014125658e+01 -6.381045517971276695e+02
-3.359726140003862938e+00 -3.803154110484847195e+01 -6.365437408547576297e+02
-3.635585179171520309e+01 -2.835697250759913501e+01 -6.454356753103015762e+02
-1.098253424908466869e+01 -2.246120418534643903e+01 -6.414634189635230541e+02
-6.951594195436018708e+01 -7.609601142220768111e+00 -6.414027638387375418e+02
-4.004221047026115343e+01 -9.403302662826730440e+00 -6.394341738243817872e+02
-9.536292606025936891e+01 -5.033175287191107294e+00 -6.400193175409186779e+02
-6.051019981503770140e+01 1.056170669000628237e+01 -6.408582921205378398e+02
-5.791728657469458597e+01 5.426589436349305018e+00 -6.391027169557731895e+02
-6.335154952375027904e+01 2.359647115008858975e+01 -6.388063013112696353e+02
3.271886881950213422e+01 3.554960009991347647e+01 -6.406262542379607794e+02
-6.409697113323048256e+01 -7.624045446648594293e+01 -6.336716324144658756e+02
-1.015676444440987041e+02 -7.315534055869194674e+01 -6.376555394783001702e+02
-9.542676734556323481e+01 -7.258757238473901907e+01 -6.440613500475076307e+02
-1.253736647686934873e+02 -5.429638544831239244e+01 -6.381540402988755432e+02
-2.415392002018252526e+01 -5.348112849289918103e+01 -6.448789945475355125e+02
-4.585648550207431562e+00 -4.228873361410104792e+01 -6.379318307154259173e+02
-1.214989264987592321e+02 -3.587753320249571942e+01 -6.397071669579679565e+02
1.109752365033045862e+01 -2.192081263444433503e+01 -6.422093937196619891e+02
-1.059677638270610487e+02 -1.262109784077471275e+01 -6.378541341275209788e+02
-1.008873742497160180e+02 -8.466272096220036403e+00 -6.401556614407505776e+02
2.474188578015125728e+01 -8.522713726048969818e+00 -6.470900551810019579e+02
-8.945121712709369888e+01 -3.073461062097714080e+00 -6.423533982718015523e+02
-8.300282724040968674e+01 -2.160197554412159437e+00 -6.430176424284115910e+02
-6.198048033769509857e+01 1.772635954803691760e+01 -6.426796225765606323e+02
-6.213205012853079978e+01 2.297117758579125280e+01 -6.422100970921975431e+02
-6.137417469454157981e+01 3.104514520050605952e+01 -6.416383856174508082e+02
-2.764285396640313408e+01 6.282032890659500168e+01 -6.429417065723010865e+02
-1.206982870146158433e+02 -5.952303847213045174e+01 -6.425416471825075178e+02
-1.222977400304460218e+02 -5.411685070740483638e+01 -6.439472008222109025e+02
-1.246772003992929854e+02 -5.019094963517583352e+01 -6.400698963025085959e+02
-2.085816938383460339e+01 -1.841872040197872806e+01 -6.403568848077752591e+02
-3.010681791256128292e+01 -1.484444569701121353e+01 -6.410229970959430830e+02
-9.011449816504992327e+01 -3.570895797924470649e+00 -6.464469180565293982e+02
-5.227260261072069625e+01 -1.622433492931530941e+00 -6.403530807412078047e+02
-5.807670199645914977e+01 5.269318345189343944e+00 -6.413290274384173699e+02
-5.932292535556547364e+01 3.898670047241029124e+01 -6.422097410813775014e+02
-4.402948910115615178e+01 5.873674025404937282e+01 -6.442825119873023141e+02
-5.063340677370412379e+01 5.762674048458123366e+01 -6.424281289623927478e+02
-8.987934089630684298e+00 6.531865307491587203e+01 -6.413364568878699856e+02
-1.030806890687911164e+02 -7.062635007591538283e+01 -6.437858119152979270e+02
-1.189688467897589419e+02 -6.068045653600896827e+01 -6.456763428495762582e+02
-1.215208282387425101e+02 -4.986179029695440335e+01 -6.456513464622903484e+02
-6.758795250136433452e+00 -3.918407271038620365e+01 -6.453901600050439811e+02
-7.674124460611906784e+00 -3.628039284564428613e+01 -6.399592170099828081e+02
-1.300635270750356476e+01 -3.602777336858886059e+01 -6.487711266835076458e+02
-5.097791950201767897e+00 -2.506785002352084746e+01 -6.441086035415976312e+02
-1.899540314916990624e+01 -2.195907013165646759e+01 -6.457307969210717147e+02
-5.357313962037986244e+01 -1.727064115875256434e+01 -6.452838760374321510e+02
-4.291399024963450159e+01 -2.523883746677356399e+01 -6.424774286430954362e+02
-2.812721860526200146e+01 -1.795100501811710103e+01 -6.446411112039277214e+02
-3.213321581741213606e+01 -1.675582498552401134e+01 -6.464838357952679644e+02
-4.454496175590990958e+01 -7.273842626604832162e+00 -6.418128724900917632e+02
-6.210389932682911507e+01 -1.092167190565742807e+01 -6.436859704887002636e+02
-6.166247042947981072e+01 -9.696281653310377280e+00 -6.462245501995994346e+02
-5.321835562453088642e+01 -3.421254774415431577e+00 -6.475872214605783483e+02
-5.286418450999171625e+01 -1.511856391725338700e+00 -6.427832311063108364e+02
-5.710659210357723481e+01 4.123919528080057262e+01 -6.442173847237686459e+02
-5.726728742010259054e+01 3.638986307217962946e+01 -6.473040449692034599e+02
-6.022479173203426939e+01 3.190261999499985635e+01 -6.435702170550198389e+02
-5.035125534664788916e+01 5.141152772404738158e+01 -6.464875024290483907e+02
-5.405716305780088504e+01 5.090263483287003510e+01 -6.438422904625460887e+02
-9.468286804530742984e+01 -7.169569657396579032e+01 -6.475059640066542670e+02
-9.108416073982478167e+01 -7.171689057141310286e+01 -6.499282900264322507e+02
-1.199224772305966837e+02 -4.626687311108114642e+01 -6.473705143509305344e+02
-4.555247108504051567e+01 -9.497577351849260552e+00 -6.477885343081222800e+02
-7.141684471161842396e+01 -4.550835174300013719e+00 -6.439509219373625228e+02
-6.845812519833521037e+01 -4.564812564052131982e+00 -6.465972739537261305e+02
-6.166402742349183796e+01 1.140505460018994377e+01 -6.440553050187968438e+02
-5.943936958571345031e+01 2.772730538660524857e+01 -6.477414261683480845e+02
-1.089421184126618840e+02 -6.819881942445650225e+01 -6.466562375833696024e+02
-1.198075520900640214e+02 -4.108455499830688495e+01 -6.448120836269183656e+02
-2.685628434033451484e+01 -2.077079083541499216e+01 -6.493414809042208162e+02
-9.383171214217109934e+01 -1.095308672699508179e+01 -6.525552297066852816e+02
-7.675802217580574016e-01 6.337157496519501620e+01 -6.429499916020803312e+02
-6.321716963564192326e+00 6.291166532910771991e+01 -6.456327472379729215e+02
-1.119154238697641404e+02 -6.623915773252302586e+01 -6.491790959820610851e+02
-1.156798044510509982e+02 -6.446009375191235335e+01 -6.462462613904864384e+02
-1.213766288093697341e+02 -5.374277542577826949e+01 -6.469099610817778512e+02
-1.197870447523670947e+02 -5.788701372706479731e+01 -6.489618010604579013e+02
-1.230104703203942229e+01 -4.393788356253618588e+01 -6.516905257418819701e+02
1.260303904125964358e+01 -2.307017417563416117e+01 -6.465382534415505233e+02
6.036166696008939070e+00 -2.541816655630176314e+01 -6.450081737240955135e+02
-5.263827850646011797e+01 -1.551748196166090388e+01 -6.513125970364677642e+02
-3.687731553501564008e+01 -1.558594760856147943e+01 -6.495863633103722350e+02
-4.661938337897740325e+01 -1.031517816622569050e+01 -6.508354462032568790e+02
2.509914077434308055e+01 -7.345910320467961441e+00 -6.532429646598171757e+02
-7.923693468002781515e+01 -1.985531552014295542e+00 -6.442104218718543507e+02
3.002033258820909722e+01 7.208104717408665429e+00 -6.479719300056966631e+02
-5.975908704828972873e+01 2.499678884316756111e+00 -6.480495261576422763e+02
-6.200057234164053455e+01 6.467105131737685753e+00 -6.482553073331498581e+02
-6.013549215023397210e+01 3.079138275803808167e+00 -6.498432582597536111e+02
-6.291379981821108203e+01 1.382777750735727906e+01 -6.477631847834021528e+02
1.445430830487093665e+01 5.615722227442520875e+01 -6.437351554863060983e+02
-4.745628269123592702e+01 5.537919803528462381e+01 -6.459458956296640508e+02
1.395232672261774809e+01 5.119436647249358430e+01 -6.540794283306389616e+02
-1.201736833737988519e+02 -5.272663359342963929e+01 -6.493048552870158119e+02
-1.151252598534790792e+02 -3.884568775356260772e+01 -6.500471834016177581e+02
-1.161546374419561971e+02 -3.464958785324388657e+01 -6.456116972619047374e+02
-2.129158736073406555e+00 -2.875265295820577194e+01 -6.523774293349733853e+02
-1.417572567058322264e+01 -2.581217313473510089e+01 -6.525572578964211061e+02
-1.197315191796068135e+01 -2.486982656457082541e+01 -6.475365032070052393e+02
-4.341290736123858807e+01 -2.255014040028624933e+01 -6.524521043563634066e+02
-4.311214533623721934e+01 -2.420730011379075108e+01 -6.469570672775673756e+02
-1.103189511035259329e+02 -2.485867098005484621e+01 -6.448257923099383788e+02
-9.834692153905187695e+01 -9.086103667014361562e+00 -6.449801167936308275e+02
-8.722271811388510798e+01 -2.102430100401833535e+00 -6.453642441928925564e+02
-5.574384225692583783e+01 3.648527634284193510e+01 -6.502756245185720445e+02
-5.209930798563646448e+01 4.695586066007638948e+01 -6.476397687330895678e+02
-4.497223671205188822e+01 5.264070334102007820e+01 -6.509368390334632295e+02
4.689467712578703207e+00 6.132542578273031353e+01 -6.435422007033607770e+02
1.302523332218033847e+00 5.908126920989958819e+01 -6.498093061568757776e+02
-5.462885784274185852e+01 -6.961826156255236242e+01 -6.473909417401063138e+02
-1.667297186905083350e+01 -3.595321137305754888e+01 -6.553011961648664965e+02
-3.429765788661077153e+01 -2.850746975935742711e+01 -6.533682473134329030e+02
1.799167436005362930e+01 -2.021630980979516323e+01 -6.510311131204224466e+02
1.946395028169514063e+01 -1.830884759477061507e+01 -6.519203555092911984e+02
-6.373976013056157086e+01 -5.464313277340209218e+00 -6.516349817248825502e+02
-9.283951223062869929e+01 -6.484838167563777844e+00 -6.486895277664129935e+02
3.141803639472771081e+01 2.105889917811139611e+01 -6.490867154442250921e+02
2.848398127140833935e+01 1.361250462469442724e+01 -6.555382953417813496e+02
-6.303453402827759788e+01 1.148522641304996839e+01 -6.495177969554289348e+02
2.667153341502135433e+01 4.345679754717548349e+01 -6.458619076240335062e+02
-2.444829787837471002e+01 5.855977055505052675e+01 -6.499217448619227753e+02
-1.039154719456342661e+02 -6.787371207795287376e+01 -6.517850064311514870e+02
-1.173491139876440172e+02 -5.979903098325745958e+01 -6.522655387645481824e+02
-1.194660157557524229e+02 -5.682055546848269501e+01 -6.507857375137202780e+02
-2.237230365398442089e+01 -3.372337295811208691e+01 -6.468088757201350063e+02
-2.913237837995412605e+01 -3.140369854007790806e+01 -6.521496434231352168e+02
-5.244301895822452764e+01 -1.429410647267510726e+01 -6.548461100512746498e+02
-4.448329604765380196e+01 -1.221981369973111775e+01 -6.533197171588428773e+02
-8.505393974266873158e+01 -3.076603042074446570e+00 -6.535470591091069537e+02
-8.222985730880637334e+01 -1.200330909973481797e+00 -6.486593681761708012e+02
