-2.092266495058687070e+01 6.845005352940539467e+01 -4.299229289759981043e+02
-2.653411632921106644e+01 7.206707019638778888e+01 -4.301688106091777968e+02
-3.781427586408702268e+01 -1.110430509026510082e+00 -4.290307731651932954e+02
-2.685506623134238069e+01 -5.927586627506463479e+00 -4.347999050491199000e+02
-2.341791999975917093e+01 -5.715498271860063539e+00 -4.290599937532688273e+02
-4.742342422199981655e+01 2.337397592487378439e+00 -4.306956768534461730e+02
-5.944345080257339475e+01 1.533851869130957013e+01 -4.286252439735920348e+02
-5.827802260426226866e+01 2.470408778253145243e+01 -4.307931384346024402e+02
-5.744631675023243389e+01 3.012362896589662498e+01 -4.316140285900087292e+02
-5.728079868343444758e+01 3.646899133816182115e+01 -4.344649799651168678e+02
-5.559383205013169515e+01 4.214714830620636121e+01 -4.334106634527166193e+02
-2.796380520452062868e+01 7.370362839402311295e+01 -4.277859415072435922e+02
-4.148891870746461308e+01 7.573248560698814913e+01 -4.282626324140027805e+02
-4.040724299324490687e+01 7.544194174073145120e+01 -4.296066609942664627e+02
-3.389216753809852634e+01 7.379538942818221869e+01 -4.309347972536855309e+02
-4.408151716199107994e+01 7.739454598677286867e+01 -4.284648290072861414e+02
-4.363788358623584429e+01 7.709933995615813274e+01 -4.302834626297553768e+02
-9.626902478918127670e+00 -8.145713625920175005e+00 -4.330906334367466002e+02
-1.066207770630955132e+01 -6.190268673013209266e+00 -4.313335545708179666e+02
-5.455316323843488391e+01 8.106510919133183890e+00 -4.318209468327605123e+02
-5.664731957117633954e+01 1.082466899651292991e+01 -4.293597625261257917e+02
-1.743012020555401165e+01 9.654115470344349248e+00 -4.345932329745417064e+02
-1.790229951101749961e+01 6.392548276536581398e+01 -4.295449428169888506e+02
-2.013019110190058925e+01 6.653443735014484162e+01 -4.313018850193207641e+02
-5.094384775589196579e+01 4.196934750926669899e+00 -4.314811574903815199e+02
-1.081949271033859539e+01 -7.238849808253476625e-02 -4.329252804155897820e+02
-1.189116444625346602e+01 2.229769898063857614e+00 -4.308346093004152522e+02
-1.748016001902376715e+01 1.182476840975532362e+01 -4.323363984979031898e+02
-1.884694065122538120e+01 1.612034784105141583e+01 -4.333509856784280032e+02
-5.862912996701344781e+01 2.349492489760179481e+01 -4.328197669283458140e+02
-9.952349656565157687e+00 4.033406706093823857e+01 -4.287977277364291808e+02
-1.560073862479476858e+01 5.774366749402233978e+01 -4.314130240626748218e+02
-3.165991526372762621e+01 7.295654888204775546e+01 -4.320279404289069021e+02
-4.058340682821800272e+01 7.526937487695995799e+01 -4.312690125772583656e+02
-3.977792763340867310e+01 7.447926816324505239e+01 -4.334894567933827716e+02
-4.279679038134278102e+01 7.661846672167419570e+01 -4.323077947402687187e+02
-5.759052948791569548e+01 1.181902287245176275e+01 -4.311820205266434414e+02
-1.624374811412076980e+01 7.065997334785624417e+00 -4.369525709725924685e+02
-6.177391686401532667e+01 2.052898175647670698e+01 -4.326852105041097047e+02
-6.085436495840306037e+01 1.791231133155456234e+01 -4.314361163368120060e+02
-6.088339875449261740e+01 2.155649800725307585e+01 -4.313847398103054616e+02
-5.975832725753048180e+01 2.179398737715554546e+01 -4.328653827572136379e+02
-2.057008938903432593e+01 1.320264369989804187e+01 -4.363330633861422143e+02
-2.225815731226778738e+01 1.734637396664261288e+01 -4.359931806006134138e+02
-2.459630979622937730e+01 1.992310552599180795e+01 -4.379361341497065609e+02
-2.138994196977111173e+01 2.174217311229776328e+01 -4.348424365882982556e+02
-2.626272619383767548e+01 2.489531799830218262e+01 -4.366386601971935875e+02
-1.509302013830630074e+01 4.238008667104846694e+01 -4.357863573557084464e+02
-1.181606340534759347e+01 4.462179729086494717e+01 -4.315295728146325587e+02
-5.305280262241650036e+01 4.753365904070361836e+01 -4.328048062130570202e+02
-1.425906715287397475e+01 5.119940846624079001e+01 -4.321916060951754162e+02
-1.716300469889528557e+01 5.579038081887946277e+01 -4.339126199007753257e+02
-2.038483423732595057e+01 6.277236397318184657e+01 -4.335291498060694835e+02
-2.337498752983916717e+01 6.949142606454927318e+01 -4.317588889183190872e+02
-2.631288688788692554e+01 6.879484379002269634e+01 -4.335829116946931094e+02
-3.255831017590029575e+01 7.179837653072296177e+01 -4.337003676185416339e+02
-3.489375903900143783e+01 7.119724568451979962e+01 -4.354298673712817163e+02
-3.544197493398328902e+01 7.329246892159908100e+01 -4.328603611177617267e+02
-4.192347010600823864e+01 7.591819938492312758e+01 -4.351130932444117434e+02
-4.271416399917982432e+01 7.673070245967379321e+01 -4.345122005383657893e+02
-9.232386016875842927e+00 -9.359575119317398162e+00 -4.345892776846055767e+02
-1.477132077403809340e+01 -9.610651616116232532e+00 -4.344781560817650075e+02
-5.223908753973393004e+01 5.385531117258683054e+00 -4.335287807779182572e+02
-5.049094545566548931e+01 3.639223155080393735e+00 -4.326179600944716981e+02
-4.052892479063459774e+01 -5.795678358326792345e-01 -4.341130779390090311e+02
-5.182051208925552999e+01 4.139968885661271081e+00 -4.357644900364106206e+02
-9.913453518505397355e+00 -2.161696051817418418e+00 -4.351614998678276720e+02
-5.790388994446119142e+01 1.298264332853426062e+01 -4.335747305650903058e+02
-5.491743582716653549e+01 8.599139725585938976e+00 -4.332000272952487308e+02
-6.015217512951117129e+01 1.654706148634364737e+01 -4.327448971495545607e+02
-6.077278528379653011e+01 1.936589110176897677e+01 -4.341900463719700838e+02
-5.552222575022603479e+01 8.567267611825107210e+00 -4.363976883502140254e+02
-5.810968031126851230e+01 1.607822042053648559e+01 -4.367204958331907392e+02
-5.282489004852561720e+01 1.864973134111287933e+01 -4.385822700310872051e+02
-5.801956485688009479e+01 2.252764712482324327e+01 -4.341166444893680705e+02
-5.466247135173274074e+01 2.149257601448239186e+01 -4.366810876999855395e+02
-5.462227513010368796e+01 2.476958638475721131e+01 -4.365336850598883416e+02
-5.694686932406206381e+01 2.872397786523703545e+01 -4.329527878020584808e+02
-2.775075560490508053e+01 2.875937122393470702e+01 -4.374143767819364257e+02
-5.670815498488873629e+01 3.059197664084631896e+01 -4.368419118104453105e+02
-2.764518318820154974e+01 3.633656854176120987e+01 -4.380260459090661129e+02
-2.492333002655656315e+01 3.162113624165680648e+01 -4.364725046617257362e+02
-2.258815921450331743e+01 3.206739222791271970e+01 -4.362590224181670351e+02
-5.865754026056362846e+01 4.338125185206359902e+01 -4.409834948269517554e+02
-4.338037974805932784e+00 -1.137421172943734504e+01 -4.401894284021045110e+02
-4.023155343364228997e+01 -4.861004375364225139e-01 -4.380001229521198525e+02
-6.335684012626997763e+00 -1.090848534546960913e+01 -4.374174239915627140e+02
-1.221341694663112953e+01 1.855344203134520420e+00 -4.391787424574169449e+02
-5.100857276878937796e+01 3.913789787685372890e+00 -4.386960601375973852e+02
-5.923365581928054269e+01 1.179969686448559685e+01 -4.382195060346775222e+02
-5.792404754817641788e+01 7.215300656514341604e+00 -4.393439017959017860e+02
-5.594694403587805454e+01 2.710667848429363858e+01 -4.349226696589690278e+02
-2.137632515071587846e+01 3.783812343682386370e+01 -4.380216400148743787e+02
-2.424529091892100041e+01 3.429290347987264909e+01 -4.371280996319753172e+02
-1.638780583158843385e+01 4.848974302421742522e+01 -4.355451482611642859e+02
-2.005312118455798398e+01 5.040747050364579707e+01 -4.383573359846157587e+02
-5.507297475296419975e+01 5.600137059528123729e+01 -4.414035872240033314e+02
-2.664079152133085415e+01 6.416075765507228823e+01 -4.367040827849289144e+02
-4.195706055821217006e+01 7.729595683379021409e+01 -4.343731984074843240e+02
-4.023736095578093597e+01 7.741399975049642990e+01 -4.387835892449717790e+02
-1.642811650068001939e+01 -1.103895508589531715e+01 -4.407572639450087308e+02
-3.218688706172713410e+01 -4.049839565685461551e+00 -4.411075214045859525e+02
-5.588376182769594891e+01 5.199638819535493006e+00 -4.393362180656222904e+02
-5.077138997385930708e+01 3.753577874891702137e+00 -4.419752346294040422e+02
-5.163840990094760741e+01 2.241689571485957799e+01 -4.391117091867761815e+02
-2.690589084542501297e+01 2.303350434858459650e+01 -4.381490855922053242e+02
-2.931966148807105554e+01 2.482565301887733966e+01 -4.408089544229686112e+02
-2.868012161676173477e+01 2.657893244184264248e+01 -4.384255937733653923e+02
-2.892901955992023488e+01 3.301910017647311690e+01 -4.382123269627609830e+02
-3.053474625465493375e+01 4.583126848445226642e+01 -4.404017037782143120e+02
-2.980217759053731541e+01 3.996684745755742796e+01 -4.392373405327002729e+02
-2.041079283417190382e+01 5.751806483004128268e+01 -4.361428569084761762e+02
-2.479684581921642916e+01 5.649442919045063149e+01 -4.395493681209785564e+02
-5.107560790036085763e+01 6.589875939684438322e+01 -4.411402099106902597e+02
-4.039582347661535522e+01 7.432773398627278993e+01 -4.385966741884290059e+02
-8.413586971489598554e+00 -1.280578617458150070e+01 -4.395636224978162545e+02
-2.441571923741649641e+01 1.772655194393475142e+01 -4.384369608849178235e+02
-3.147050120856372857e+01 4.039014470606268503e+01 -4.400081535162617001e+02
-2.631731260713338827e+01 4.575648597901274428e+01 -4.406189454207733434e+02
-2.410875565878234639e+01 4.168711091603405805e+01 -4.393155274534256023e+02
-1.663120774481483011e+01 3.979890084363768921e+01 -4.367130416392449774e+02
-3.216510535191797260e+01 4.685101578260596256e+01 -4.406520621143874337e+02
-3.205142570580483152e+01 4.824375952389974032e+01 -4.420370606320419142e+02
-3.832009240162432206e+01 7.244408485677540455e+01 -4.361088264801060177e+02
-4.876287712741502389e+01 7.039294393940554073e+01 -4.428360762770682300e+02
-4.006352758258402247e+01 7.651754561799715759e+01 -4.348618143324540597e+02
-1.049031706894135141e+01 -1.366524189103469844e+01 -4.429313859728994771e+02
-1.715249917688069559e+01 -9.814127520503744151e+00 -4.364544525445913337e+02
-2.719765137130122667e+01 -6.174961681577028294e+00 -4.378210605446370778e+02
-3.329949992668553183e+00 -1.373721743179769561e+01 -4.429772715404236010e+02
-7.664422024118748844e+00 -3.532174108826779069e+00 -4.400300246886151854e+02
-2.216564733071463422e+01 1.383210602828818914e+01 -4.387385781996682681e+02
-5.471704126394915590e+01 1.336342865628385645e+01 -4.397580121256111738e+02
-5.203556439391251587e+01 1.259364942934771037e+01 -4.432830022192512160e+02
-2.674093973048340089e+01 2.031108757078257199e+01 -4.413173244179764652e+02
-3.073483732390667100e+01 3.104955833744444860e+01 -4.405620274296385901e+02
-3.139636817780688460e+01 2.873938661899934388e+01 -4.436256277456358816e+02
-5.519971873921429761e+01 3.001657183245161065e+01 -4.395239329744914585e+02
-5.664498236983616408e+01 3.341060274401741736e+01 -4.412119157759325390e+02
-3.155776635153325316e+01 3.751736562533913855e+01 -4.412836248910248855e+02
-5.805885154801899262e+01 3.527558424872802334e+01 -4.405978504517732404e+02
-5.773679206591700108e+01 3.279882262313737584e+01 -4.358346262458276783e+02
-3.147148619294480554e+01 4.684006169047643908e+01 -4.436881597595937592e+02
-3.034685799005545803e+01 5.182952698499254041e+01 -4.417915229838812934e+02
-2.027841415907442624e+01 4.612205579602714778e+01 -4.393664772750940983e+02
-2.319670707609262195e+01 5.149424943510113195e+01 -4.402152897078499336e+02
-3.182703725088747859e+01 6.515334684675660526e+01 -4.388906106505821754e+02
-2.892098161955434676e+01 5.919389015826213551e+01 -4.410017901053604419e+02
-6.002011918164847515e+01 6.877408299450560314e+00 -4.411805909547064175e+02
-5.885748491971778407e+01 5.452491324534440409e+00 -4.436663616042171725e+02
-5.364592629979017602e+01 2.743709132695195763e+01 -4.396770314000874578e+02
-3.372393909711571780e+01 5.900429521385679266e+01 -4.428782889978897401e+02
-3.206891425568640130e+01 4.797919871935858538e+01 -4.406348082093095400e+02
-3.274170757280744937e+01 5.317389159594398507e+01 -4.421594100934079847e+02
-3.575375493001785543e+01 6.724746318160197234e+01 -4.407999605479387810e+02
-3.791914176147217574e+01 7.185515524183779235e+01 -4.426347243434858001e+02
-4.915100921261712585e+01 3.312526866921346791e+00 -4.468918088808705420e+02
-4.997098756920579632e+01 1.962455335907553078e+01 -4.416734928745286766e+02
-2.975717173087411638e+01 2.418068580707232940e+01 -4.430845337518222777e+02
-2.769697096829214189e+01 2.086408641254797303e+01 -4.447576466224738851e+02
-5.860391918655837884e+01 3.768271613965196565e+01 -4.408197220048554641e+02
-2.262906245701361030e+01 4.541796552111358665e+01 -4.401171522626837032e+02
-2.827353485981731041e+01 5.252621066179340659e+01 -4.418601698819471721e+02
-5.760764887041775495e+01 5.568158329268255358e+01 -4.463685026997539467e+02
-3.247983347895319639e+01 5.607587785310574446e+01 -4.443373671864508196e+02
-3.432425765368252968e+01 6.338562393391458016e+01 -4.442405464495240608e+02
-2.742007275345157424e+01 5.533547304769810182e+01 -4.415887047200205870e+02
-3.355318711511728935e+01 6.320857358140489879e+01 -4.417723622763804201e+02
-4.153070012481260420e+01 7.603585256333302311e+01 -4.429339354230887693e+02
-3.877196672294719093e+01 7.652337594523423547e+01 -4.446362721200983401e+02
-4.084832777621055300e+01 7.673760495556606998e+01 -4.392404299608099905e+02
-3.930770888640714134e+01 7.486108199801918772e+01 -4.420299455240049156e+02
-4.957273713370031487e+01 2.848130761429724700e+01 -4.467917541582410195e+02
-5.064516011577016741e+01 2.717548556436454632e+01 -4.435149441891886681e+02
-5.579426317451325446e+01 3.897850448780075538e+01 -4.465087005680225616e+02
-5.203804096805804846e+01 3.167322819158646752e+01 -4.456897980799867014e+02
-3.154519476113170384e+01 3.859196208243047010e+01 -4.432614544359843762e+02
-3.175008789768225981e+01 3.381124806001373173e+01 -4.441841724964619971e+02
-3.078207762811875625e+01 4.639326705023697173e+01 -4.468971133891958516e+02
-5.879225321439885477e+01 5.036436198958504207e+01 -4.461382978488914546e+02
-3.251184148518196793e+01 5.730354823996962921e+01 -4.424047866225012058e+02
-3.202787765917914697e+01 5.901970774805243281e+01 -4.423474303456924304e+02
-3.529587295322029661e+01 6.458179424083161280e+01 -4.426901579017546737e+02
-3.657086035040909877e+01 6.791356226907402061e+01 -4.415613888469553103e+02
-3.398952064339249546e+01 6.403704008748368892e+01 -4.453231576547556756e+02
-3.681149743700510157e+01 7.220022742861601728e+01 -4.455241498638508233e+02
-5.343291676302772686e+01 6.844395700549519290e+01 -4.463970691449223978e+02
-4.667981182833435660e+00 -1.502130279779428079e+01 -4.437156719436889603e+02
-5.356277034673482262e+01 6.737554693258133831e+00 -4.484550877394182749e+02
-4.887669869831751157e+01 1.117835323258540292e+01 -4.496630900681572598e+02
-5.033428369320627382e+01 3.194617281922514707e+01 -4.484842809342604255e+02
-5.901577422080824675e+01 4.200449721653266977e+01 -4.424699028144086128e+02
-3.335293690107897646e+01 6.342222050854475413e+01 -4.463742094522734192e+02
-3.278445569577081642e+01 6.207014714252695597e+01 -4.472431318054680105e+02
-3.713066021784509019e+01 7.291974025549453131e+01 -4.456095650987488739e+02
-3.516810744482113904e+01 6.852091231820482164e+01 -4.459349603820634229e+02
-1.749624280966558842e+01 -1.169938849305139783e+01 -4.475089852769551158e+02
-3.124930546908676554e+00 -1.083315353415027360e+01 -4.438395607305148474e+02
-1.680298022335267660e+01 5.570785923143972695e+00 -4.427713313584581556e+02
-1.924995150067791627e+01 4.941868735361620857e+00 -4.519779013538729373e+02
-2.442504034828951376e+01 1.151266299929115888e+01 -4.477538518244620604e+02
-2.724658424441362570e+01 1.946547129912043772e+01 -4.490766186184665685e+02
-2.491749649138631639e+01 1.565322646279568808e+01 -4.431792718839868712e+02
-2.637172417512682898e+01 1.667264592640337995e+01 -4.500468640339393573e+02
-4.766274716621770580e+01 1.757102656929132678e+01 -4.460841838258000394e+02
-2.981889394072178945e+01 2.380920548100364798e+01 -4.484230013496103311e+02
-3.112435731045633602e+01 2.645017378505417938e+01 -4.461698875404763385e+02
-4.811363870799152664e+01 2.141425365508258949e+01 -4.446895083294575670e+02
-3.198836580577046007e+01 3.056735538474674030e+01 -4.462738847894783589e+02
-3.122527671417290307e+01 3.987052150032678099e+01 -4.500551115918241294e+02
-3.790191625331641490e+01 7.501417870261147414e+01 -4.480980826271209594e+02
-3.876675244979603718e+01 7.734358823578511988e+01 -4.487240487209929256e+02
-4.092964293354395267e+01 7.764416649740125820e+01 -4.465196205239514029e+02
-3.201796995976350502e+01 3.463548945168281534e+01 -4.488045562783527203e+02
-3.171809348188860156e+01 3.590098674866410278e+01 -4.470203084709966674e+02
-5.855859935233032587e+01 4.850253168754650090e+01 -4.473371785104134233e+02
-3.184289202887792669e+01 5.843168847376849584e+01 -4.474344131612822366e+02
-3.288438751808451599e+01 6.284171071965360511e+01 -4.481208032807852533e+02
-3.783014469352063003e+01 7.486854528841180922e+01 -4.481132616548205760e+02
-3.575095471760852206e+01 7.050473185762739092e+01 -4.484602444215260562e+02
-4.664096689099690707e+01 7.419880015703256504e+01 -4.452606249356022090e+02
-4.488602398188199061e+01 7.702282882473105019e+01 -4.486167859707712751e+02
-5.413044915515607158e+01 6.978183946625294709e+01 -4.494958176900247508e+02
-7.118413363686713957e+00 -1.583447933355522075e+01 -4.478959259279853313e+02
-3.763633143250135049e+01 -1.196706027611498024e+00 -4.459761875578240051e+02
-6.758446073094514617e+00 -4.627418698500417094e+00 -4.445716815941930804e+02
-4.128129855867140208e+00 -1.038665780328509314e+01 -4.548263805117950938e+02
-3.734315821000750901e+01 -1.498504303460453491e+00 -4.502116226761729649e+02
-4.563182166676673290e+01 2.312344075188984505e+01 -4.509926336448696134e+02
-4.801787074515431186e+01 1.394053200501662815e+01 -4.479315099097676125e+02
-4.699748191630332173e+01 2.268816250617570418e+01 -4.481602377666563939e+02
-3.226685237434243447e+01 3.139694296639849114e+01 -4.483851967016221352e+02
-3.025922163085421346e+01 5.124806733878036624e+01 -4.511355832289145269e+02
-3.185286976089707878e+01 5.649599710088985205e+01 -4.461421735767877408e+02
-3.506497713131386718e+01 6.928649154890516115e+01 -4.492419543092510708e+02
-3.631142506678701665e+01 7.257487954084047033e+01 -4.497384888355297790e+02
-3.949658444240645139e+01 7.924171789357664863e+01 -4.486146348789993681e+02
-3.873704964486796598e+01 7.763032585082625303e+01 -4.493796738214722382e+02
-5.966206167595309751e+00 -1.728362119139045205e+01 -4.522813040893961443e+02
-3.833819109670658420e+00 -1.633839359003832925e+01 -4.487199589923667418e+02
-3.164968927471461058e+01 -8.343973926750782866e+00 -4.552704655131715867e+02
-4.240391006088270842e+01 -1.987441580605117553e+00 -4.545356230028368145e+02
-5.293435390559560716e+01 5.348783613855053964e+00 -4.516460041044702507e+02
-3.238824751864662943e+01 3.045965125130370410e+01 -4.496669971064192737e+02
-3.102297752167751810e+01 2.526965946480652292e+01 -4.506604562590330829e+02
-4.750839457481833250e+01 2.844936313285820262e+01 -4.520037918745057937e+02
-3.229139783546533238e+01 3.412979977637240125e+01 -4.503075290067722563e+02
-5.137247292146461319e+01 3.939067699952236268e+01 -4.520591654129880794e+02
-5.794474380963199422e+01 4.329428279510499777e+01 -4.459028114706916881e+02
-3.058199475639080234e+01 4.431173040197340640e+01 -4.521679375608935629e+02
-5.737989926099874083e+01 5.743692718331410418e+01 -4.502991905821041314e+02
-5.500881128691743527e+01 6.857159659789573425e+01 -4.514709878064248869e+02
-1.996579126933172077e+01 -1.167539691892265097e+01 -4.519195680373814525e+02
-3.066115514976506251e+00 -1.024966651644090732e+01 -4.501802428747725457e+02
-1.823493847760217612e+00 -1.453489563900050285e+01 -4.497715054766252365e+02
-2.768230756124730974e+01 -6.746379164088914138e+00 -4.492782240238991562e+02
-3.411829374456281982e+01 -5.442280133796763231e+00 -4.536758980726855270e+02
-3.484472965877693440e+01 -3.495320132095716570e+00 -4.524001090408266919e+02
-4.402603991526037674e+01 -2.624777851124286965e-01 -4.537054669710881853e+02
-4.412223104841726951e+01 1.648688912009032004e+00 -4.521071645125249461e+02
-5.255070842030468725e+01 3.750640690255159448e+00 -4.543122956027192458e+02
-4.577287449669353236e+01 1.546078286793275325e+01 -4.505961207943270779e+02
-3.295045774435168084e+01 2.998744532648494143e+01 -4.514456720722048999e+02
-5.010197087073680677e+01 3.530027505625658080e+01 -4.513184758744311011e+02
-3.151565770689703783e+01 5.942334116903663244e+01 -4.498919217092720260e+02
-5.631959623776170787e+01 6.496110861267656844e+01 -4.503169928168190381e+02
-3.553855181389742768e+01 6.403665523585088692e+01 -4.529101368639095995e+02
-4.676973926522000369e+01 7.354454872002743571e+01 -4.519128631267538481e+02
-3.801020458595210982e+01 7.678969309723827052e+01 -4.503186586332856223e+02
-5.010038999009866245e+01 7.334885349581858804e+01 -4.507787866907008834e+02
-4.210548244788004979e+01 7.863045004400449045e+01 -4.489909724043480423e+02
-2.410728905944846012e+00 -1.683579285728948705e+01 -4.516221868026151469e+02
-1.155482721676162861e+01 -1.545920294883593904e+01 -4.516941535194557673e+02
-5.040060908698985287e+01 2.335012402435772128e+00 -4.546190692826662030e+02
-3.963979175108979547e+01 -7.723358870547251120e-01 -4.523739771571699748e+02
-4.778376831360158405e+01 3.431840695631081517e-01 -4.555596232101685246e+02
-4.943934321231486706e+01 8.501112690987906007e+00 -4.539964256111180134e+02
-4.845601381099926641e+01 9.565274094015979500e+00 -4.535502418256788246e+02
-2.562792400652839930e+01 1.353206079352491820e+01 -4.505735649578724633e+02
-2.728704217814209088e+01 1.492934906236285286e+01 -4.548253081586755115e+02
-4.591831601100582105e+01 1.313781079082706071e+01 -4.526058755044738291e+02
-4.308950133604950139e+01 1.977453810041262727e+01 -4.527695891330283189e+02
-3.027159006275013908e+01 2.331404408499098224e+01 -4.522129821038726050e+02
-3.394360531451179952e+01 2.996549401252147860e+01 -4.533777621559931958e+02
-3.249640533545741761e+01 3.463569213383664902e+01 -4.518169014738396640e+02
-3.174708061438197504e+01 4.083699667414286694e+01 -4.557388829009481128e+02
-4.914343523268096448e+01 4.783501476843199640e+01 -4.556276256671744136e+02
-5.581325127409835574e+01 5.517998721724713818e+01 -4.521465444341574766e+02
-5.684307380198117698e+01 4.921714322907710937e+01 -4.498989688669521456e+02
-1.079239106870073250e+01 -1.695156096081384689e+01 -4.540090235513948755e+02
-2.939649168149609793e+01 -7.896675674984918736e+00 -4.536541268816455954e+02
-2.800438300664370672e+01 -7.563733204402009136e+00 -4.525063674594083523e+02
-4.967306863133919137e+01 3.817200665052832953e+00 -4.526015999101874741e+02
-5.693194816860859930e+01 7.203668056662669628e+00 -4.556496629820838962e+02
-5.508297841986855303e+01 1.028857326431679198e+01 -4.566348566863147767e+02
-4.371839733033398545e+01 1.509937115762881454e+01 -4.550850160087481413e+02
-4.016922628698864628e+01 2.105949835797425251e+01 -4.545362947897289700e+02
-2.843780757129898262e+01 2.092018953956333505e+01 -4.505169942859215553e+02
-3.670935448351929153e+01 2.224537064975959311e+01 -4.581356666980228738e+02
-3.243393345668491179e+01 2.755626293586092146e+01 -4.519946468037535396e+02
-3.590184094334237841e+01 2.374108029954386723e+01 -4.556806762882707176e+02
-3.505104871882163309e+01 2.586981130103695392e+01 -4.542095188347093995e+02
-4.475406993539875344e+01 2.738072226181242286e+01 -4.555579710578022059e+02
-4.053741879370042511e+01 1.967388022357008737e+01 -4.552298321744402188e+02
-3.761150918659227216e+01 2.488965044362331014e+01 -4.552032945198605489e+02
-3.455496764500941964e+01 3.076918836988167882e+01 -4.548001759563790642e+02
-4.686076902157072510e+01 3.510503367238784733e+01 -4.564582731247612628e+02
-4.917347372537493300e+01 5.200156166903922639e+01 -4.554113797527198244e+02
-4.579855569315667907e+01 6.857895624415986902e+01 -4.539693229173088866e+02
-1.013655567387303336e+01 -1.910456720530417840e+01 -4.585867115502048819e+02
-2.075330664250847690e+01 -1.384932732944890788e+01 -4.561987677422869183e+02
-3.758689216891746554e+01 -5.444745806088523210e+00 -4.559833793626806369e+02
-2.326196668942774082e+01 -1.061324400977759552e+01 -4.534109463187899678e+02
-2.885574193546200661e+01 -6.711673554709563838e+00 -4.519559830790316823e+02
-4.939359079677453224e+01 5.347938625395410872e-01 -4.575946988405671618e+02
-3.748993549739513753e+01 -1.705011554464102908e+00 -4.516475838713883491e+02
-7.495611275693620179e+00 -8.708814693131529339e+00 -4.594283053966342436e+02
-5.257670685661064169e+01 3.118287087161539795e+00 -4.578138446531601744e+02
-4.106651760107075688e+01 1.274716311898430599e-01 -4.523316687982085682e+02
-4.604113934822711940e+01 2.182797498255938606e+00 -4.529513520964185318e+02
-4.906492958675674743e+01 3.589048484791257376e+00 -4.527834677293077448e+02
-5.130733529669246451e+01 4.211676626401506418e+00 -4.535491034339986527e+02
-5.795369067057232826e+01 1.015234292165370533e+01 -4.570866837247738204e+02
-4.345692104075432383e+01 1.551100059526054586e+01 -4.563190004248266405e+02
-2.757422379313186411e+01 1.316580267759341361e+01 -4.578883319976384314e+02
-4.033327411218102299e+01 1.907240605979485082e+01 -4.560864363025747252e+02
-3.950068411699218984e+01 1.978338534623930656e+01 -4.572838049678113066e+02
-2.960571174329640698e+01 1.879444460188964783e+01 -4.564009740769997165e+02
-4.192559347415404147e+01 2.696510946907755368e+01 -4.565761079693024271e+02
-3.294243896503665070e+01 3.614001462728236902e+01 -4.554973846122500731e+02
-5.402656726228264006e+01 6.151696710376330657e+01 -4.539520582465967777e+02
-5.628704371620558078e+01 6.326150086576755882e+01 -4.521966899621380094e+02
-5.166304921728785615e+01 7.106009337863955011e+01 -4.522622230561231049e+02
-5.307426970399301069e+01 6.653433294152183919e+01 -4.535003595393461069e+02
-1.538683976037271606e+01 -1.542536319498437614e+01 -4.551255543931710577e+02
-2.682917338348606151e+01 -1.146532005243473407e+01 -4.564738073538043750e+02
-2.760819655040588216e+01 -1.211293817725148081e+01 -4.585407964332147230e+02
-5.633127633118103006e+01 8.086843334926728133e+00 -4.596435169546615498e+02
-5.893756874025694259e+01 1.234730856338486404e+01 -4.595363162722728703e+02
-5.518223896852740751e+01 6.225231131310990484e+00 -4.567721851258085621e+02
-2.293899887293688167e+01 5.398363574507283325e+00 -4.600071852176087646e+02
-5.196388600002282487e+01 4.129946460449142265e+00 -4.540432067196263120e+02
-5.130027300512666244e+01 1.260635415662246572e+01 -4.581377865957315976e+02
-5.106494066568468071e+01 8.925447187175961972e+00 -4.559898013397963723e+02
-5.553176765608429122e+01 1.384146442678551736e+01 -4.577081516509992980e+02
-4.736127066111947670e+01 1.084481101757558363e+01 -4.550926966473431889e+02
-3.132640356406235327e+01 1.946193087432781255e+01 -4.589281033615292245e+02
-3.295663048765757708e+01 2.278733147272571102e+01 -4.561894121677191265e+02
-3.888188378346012541e+01 5.472823555851488919e+01 -4.555721407568686345e+02
-4.928604368398786306e+01 6.295580834905312884e+01 -4.551123069058541546e+02
-4.030984730940270566e+01 7.179211039115654103e+01 -4.527451723843590798e+02
-3.227724514979015247e+00 -1.820508171607751891e+01 -4.556050337480774601e+02
-4.926575795678173719e+00 -1.941674905241535853e+01 -4.603020915496811654e+02
-2.639628860291306012e+01 1.093068996236315016e+01 -4.547027946927771040e+02
-5.354013320406351539e+01 1.703903705503027766e+01 -4.592080691663507537e+02
-5.607052829743933131e+01 1.845041428700413633e+01 -4.614672000510761904e+02
-3.586891223206686874e+01 2.921665990169624294e+01 -4.562832056975067303e+02
-4.958086930549627880e+01 4.327218529266484381e+01 -4.553774220856659554e+02
-4.360103662635898303e+01 5.410659416448954318e+01 -4.561921273769038407e+02
-4.557203802218465682e+01 4.740154627743869753e+01 -4.571873484454696381e+02
-4.196245503128863419e+01 4.867820261772214963e+01 -4.571781810937533805e+02
-4.439929899186271456e+01 -2.982651884796093444e+00 -4.592686573302319744e+02
-2.312039828858471147e+00 -1.603819286747689787e+01 -4.565833399795182004e+02
-1.717844703840002296e+01 4.865144915900863620e-01 -4.599036061973831693e+02
-5.627112055092361942e+01 1.626711010872223895e+01 -4.598355489214198428e+02
-5.957006836718089460e+01 1.633429336330266324e+01 -4.642456782308702259e+02
-4.816982044959766540e+01 1.512479618483950006e+01 -4.601997774389733991e+02
-4.675633400879106460e+01 1.369127546610007151e+01 -4.586897333353200565e+02
-4.648604785777330761e+01 2.929328248661618872e+01 -4.550662537925962852e+02
-4.725555453245886639e+01 4.201596326806620851e+01 -4.575483036018466692e+02
-3.716458302253719381e+01 5.131104604526778701e+01 -4.557020746139290850e+02
-4.371035387736353073e+01 1.564117895370379152e+01 -4.576765537123176841e+02
-2.908304506326239647e+01 1.709369250445093513e+01 -4.576113241342169431e+02
-4.243524480777973196e+01 1.885609951758565472e+01 -4.613800075367931868e+02
-3.458075521449986667e+01 2.204030765593315877e+01 -4.594367881143027716e+02
-4.517999877243058648e+01 3.216841184490939298e+01 -4.574569305724966739e+02
-3.874291560962583958e+01 2.935908886435272791e+01 -4.573749486922579877e+02
-3.868380879047832366e+01 3.417021335764955126e+01 -4.584644989736235061e+02
-4.224385354900685030e+01 3.025883320529639064e+01 -4.577815163681004265e+02
-4.324403848534610262e+01 3.541892142846801050e+01 -4.586482676785537365e+02
-4.593388537579292574e+01 3.980857057027969148e+01 -4.585564297310382926e+02
-3.667955267335993597e+01 3.438546177347802768e+01 -4.579169433062176608e+02
-4.018844540427452472e+01 4.134511353890061969e+01 -4.584570952218186903e+02
-4.365765621242704952e+01 4.135163511042131290e+01 -4.588340298718072177e+02
-1.797036050833105492e+01 -1.619895082171444756e+01 -4.588722012613566221e+02
-2.199325987832541784e+01 -1.715690160542901310e+01 -4.643336648684319243e+02
-5.412966013111081764e+01 1.967944530607371334e+01 -4.614655794322946463e+02
-5.230541434365434839e+01 1.891376342990880488e+01 -4.603851355603096636e+02
-5.144424925736929310e+01 2.017207602790421461e+01 -4.616721647867680645e+02
-5.481389113344428665e+01 2.343352980935588548e+01 -4.655644545214657342e+02
-1.030518460073762554e+01 -1.985278186561180291e+01 -4.605863978593383194e+02
-2.758463506958705480e+01 -1.303026891015121258e+01 -4.606999571168844909e+02
-3.477987671821773574e+01 -1.038830279971662662e+01 -4.636341386706837397e+02
-8.293569246336213396e+00 -1.121247069737882640e+01 -4.641606409074763633e+02
-5.221900642519695168e+01 1.989441152822743142e+00 -4.618457379667063378e+02
-2.507034678189126709e+01 4.578660274446557210e+00 -4.664550917779534416e+02
-4.880994477170828816e+01 2.083503887466865123e+01 -4.632374799173633733e+02
-3.907032955742990765e+01 2.406441994055749944e+01 -4.654841194150175738e+02
-3.940974938531897465e+01 2.026874169399096814e+01 -4.590777782814950001e+02
-3.326031665242664914e+00 -1.772933662663414722e+01 -4.599330259791192361e+02
-1.189139490396482124e+01 -5.500519352969647002e+00 -4.617090426915562489e+02
-5.235170656809768275e+01 1.088958958062914872e+00 -4.648384083384709697e+02
-4.342508300363416396e+01 -5.055133774289571669e+00 -4.630709151735090927e+02
-5.538987509209648152e+01 4.785033109011632924e+00 -4.651810908741088042e+02
-2.810243744330772131e+01 8.925498263370901242e+00 -4.605331958868011952e+02
-2.893441695905280397e+01 1.985998283924615038e+01 -4.710786472734909580e+02
-1.735483035914467465e+01 -3.432181401070248938e+00 -4.663271996223197675e+02
-2.901555798296347177e+01 1.382231850636350501e+01 -4.695880719675205341e+02
-4.414876623038962578e+01 2.034930975946691234e+01 -4.641825102431390633e+02
-4.529858540543619938e+01 1.671260398950730774e+01 -4.613189865316322766e+02
-5.212904667711527651e+01 2.357761676907241011e+01 -4.652548498631546181e+02
-1.129406054765343903e+01 -2.088022089687605032e+01 -4.646904571689507861e+02
-5.358072555280012139e+00 -1.408800332361716556e+01 -4.621841926729760530e+02
-9.987545421643895693e+00 -1.350181856132367564e+01 -4.689707822515557609e+02
-1.342478394614835935e+01 -7.765206992902358607e+00 -4.667395228220300964e+02
-6.204039794695121657e+01 1.787566407001893509e+01 -4.682894686791853474e+02
-5.577097641886570756e+01 3.032207991152965221e+01 -4.713026239674382509e+02
-3.740274963178384837e+01 2.271878204238325694e+01 -4.622389332501804802e+02
-1.491235827382440071e+01 -2.133876122853151358e+01 -4.680765222939373302e+02
-3.111343413670741143e+01 -1.655367635712459773e+01 -4.714766968844995745e+02
-3.666644413826820426e+01 -1.398918324249859246e+01 -4.718953892081871118e+02
-5.842117927788750364e+01 9.569740924290696782e+00 -4.648918352114021673e+02
-6.430487596086850033e+01 2.137344791295461732e+01 -4.718485361733237937e+02
-3.290906654080826854e+01 2.093037827377852622e+01 -4.587963526128697822e+02
-4.680147433886860142e+01 2.370755105190269774e+01 -4.659455738494506249e+02
-3.526692755694358539e+01 2.568565873050895121e+01 -4.692021129836368232e+02
-2.929835780560561886e+01 2.238264145612333422e+01 -4.752575773003488280e+02
-3.823467932045384288e+01 2.662815619948423773e+01 -4.685729860840179981e+02
-4.727876801009233532e+01 3.193585216241189784e+01 -4.718221403065732602e+02
-4.196960575232557744e+01 2.316393639491794332e+01 -4.657594508425663662e+02
-4.998304435651681388e+01 -4.100437447461130702e+00 -4.703127680767518655e+02
-4.430134313882911101e+01 -6.689069292827876545e+00 -4.675375851841585586e+02
-1.264130651766727986e+01 -1.117749720354689913e+01 -4.703201354365240263e+02
-8.300598679533536028e+00 -1.999146875511666011e+01 -4.658910359784936759e+02
-5.786991327644148697e+01 5.269248918235900803e+00 -4.690301481154868952e+02
-6.137101392796465404e+01 4.355696447316395492e+00 -4.741217357623245903e+02
-2.885998434158467063e+01 1.663696703404497157e+01 -4.661242618491767757e+02
-5.773045405279302855e+01 2.218468381556635904e+01 -4.662158699117699712e+02
-6.321383051332366421e+01 2.805295813045661646e+01 -4.730545809852450247e+02
-4.179215145032124923e+01 2.836211165099680187e+01 -4.699557378613033052e+02
-4.168604248460096784e+01 3.289083114358772519e+01 -4.739650727786694802e+02
-4.727517420328293696e+01 -7.739777747249280360e+00 -4.730721078734894718e+02
-5.292836174517789516e+01 -9.747456465727971642e-01 -4.692780841515943280e+02
-2.181685341651595067e+01 -5.117503814766323877e+00 -4.733354778939240646e+02
-5.950611476142568534e+01 2.759670024466077010e+01 -4.705343053932858197e+02
-5.683071767725755308e+01 3.411770153947196604e+01 -4.744390919881983564e+02
-2.592856023596484860e+01 -2.082648849218769982e+01 -4.744169871505375227e+02
-2.111944299525699265e+01 -2.075034159218291663e+01 -4.707178009068513234e+02
-7.158989919111406586e+00 -1.699660837824600534e+01 -4.661325336278527516e+02
-2.055574907110996108e+01 -2.179606359851845454e+01 -4.726556370430599827e+02
-1.642059610474848697e+01 -2.213275133797496963e+01 -4.719269992753530687e+02
-2.013715488816103871e+01 -2.309871776242663088e+01 -4.761589963536283676e+02
-1.272833643042265628e+01 -2.099675228624641576e+01 -4.716720780449234098e+02
-1.653575940144835243e+01 -2.128744071306084962e+01 -4.778218469209462000e+02
-5.732074666830067144e+01 3.597807813720123038e-01 -4.730501042006190460e+02
-1.779629517208264033e+01 -6.571258339138524640e+00 -4.703092932395049388e+02
-3.074209334305260199e+01 8.301185162445150922e+00 -4.698858154113199816e+02
-3.115423803453706242e+01 9.828985955776973427e+00 -4.771911963732275694e+02
-2.845308673702949420e+01 1.809186825333097914e+01 -4.759916169665287384e+02
-3.399969493166588563e+01 2.960203620066273444e+01 -4.764492071726400582e+02
-3.862893964132990732e+01 3.013031515698173379e+01 -4.723353357074199721e+02
-5.161463594621104534e+01 -9.105502553945713728e+00 -4.771750796463700226e+02
-1.638098298199848202e+01 -1.316402060881283376e+01 -4.778239256641164729e+02
-5.228042752682571859e+01 -3.805854136638496588e+00 -4.721771373728016670e+02
-1.428001167672633187e+01 -1.269451586215399352e+01 -4.745441743863860893e+02
-2.283036579098800090e+01 -6.047904108660711486e+00 -4.758290942243017980e+02
-2.172401696734197074e+01 -6.126575653202198879e+00 -4.743658247480074124e+02
-2.919856763257216414e+01 3.704672387689952107e+00 -4.766992875110853447e+02
-2.434920886628751191e+01 1.693842220527804976e+00 -4.701249629913778563e+02
-2.564567849741501249e+01 -3.036086979304379430e+00 -4.769092582108452802e+02
-6.425000626545165971e+01 2.493144629163437287e+01 -4.726360314759722883e+02
-6.807014569224668321e+01 3.273095084322996939e+01 -4.793580130547357498e+02
-6.507743132099177785e+01 3.897593702519638015e+01 -4.812345867260982573e+02
-6.145623916313184054e+01 3.129106469619906150e+01 -4.741392659953872339e+02
-1.954366078617648839e+01 -9.691129854832833956e+00 -4.774800514317319085e+02
-2.640507709115285806e+01 -4.970934481688844109e+00 -4.798891920645806408e+02
-5.883959011303544173e+01 4.029319484941208884e+01 -4.798044503684027404e+02
-4.878702449750452530e+01 3.570311709457988059e+01 -4.745461325518621152e+02
-4.896838331295074198e+01 3.977217998879152105e+01 -4.779752676383221228e+02
-2.505433149438017892e+01 -2.378162421639975932e+01 -4.794340431352595715e+02
-1.278098812585280086e+01 -1.836947642369881351e+01 -4.746123920514475572e+02
-6.376533079277682248e+01 1.620792866477444250e+01 -4.706735111751688123e+02
-7.118336734515162334e+01 1.137388630356673325e+01 -4.802898721290396793e+02
-6.952654454233120873e+01 2.142781424178494021e+01 -4.773418291524401980e+02
-2.894558190599816072e+01 2.474668314218411069e+01 -4.826402069439295133e+02
-2.959472199649419721e+01 -2.211111433066418641e+01 -4.786739464448064041e+02
-2.143256950140410666e+01 -2.369925369423364003e+01 -4.803378138413087299e+02
-2.047236476386341053e+01 -2.220423804472792284e+01 -4.826405212526605624e+02
-4.760218215523295271e+01 -1.880462019584530609e+01 -4.844932275326697209e+02
-1.774254782015191623e+01 -1.779868631885083374e+01 -4.810323356261648087e+02
-1.402716239544327692e+01 -1.603557697007217797e+01 -4.762558709546231057e+02
-2.071323922899661341e+01 -1.364002731652437284e+01 -4.836466228943245937e+02
-2.495489489368793912e+01 -7.698805892388432603e+00 -4.818355937382226557e+02
-6.756266156912754184e+01 4.349230964983608949e+00 -4.795272214425409061e+02
-7.557955920365490954e+01 1.760843490129663635e+01 -4.831740546399621508e+02
-5.315316492796272740e+01 4.232529547461816577e+01 -4.802824371661171767e+02
-3.783551579182840641e+01 -2.375217352239588564e+01 -4.849180412697363636e+02
-6.197426296053365036e+01 -1.527699371279272356e+01 -4.851840046943634093e+02
-5.401309677213839677e+01 -1.215873730654138463e+01 -4.809631071701825817e+02
-5.941543361703607218e+01 -5.312582529394501485e+00 -4.787942911546039682e+02
-7.317059780372227351e+01 2.283246463021888495e+00 -4.839126150788283098e+02
-2.916959682296005951e+01 1.452625313644485061e+01 -4.786259184732771246e+02
-3.292198066392192857e+01 9.109876434381650512e+00 -4.842259988877702881e+02
-2.528803506753662589e+01 -2.575022170498273510e+01 -4.867750893929569429e+02
-3.122329790776584701e+01 -9.939550249875722665e-01 -4.827290932799123198e+02
-6.985229643750918171e+01 2.711390353182704516e+01 -4.786628864370808287e+02
-7.764251156713017110e+01 3.004754555342277911e+01 -4.872924670459757976e+02
-3.523053979790497436e+01 3.754540635894315415e+01 -4.872581342796328272e+02
-3.987270409178841390e+01 3.813335295469843800e+01 -4.812936209361914734e+02
-4.514065649296144045e+01 4.426313952829656984e+01 -4.840842842363136924e+02
-4.636133104896429558e+01 4.165104319168955982e+01 -4.804318663901036643e+02
-4.287887132554748604e+01 -1.540651792235938622e+01 -4.785701982425405845e+02
-6.824823460583797896e+01 -1.100564450617812540e+01 -4.851840036701897247e+02
-6.296451674075604643e+01 -3.689274457884138769e+00 -4.799635998968017816e+02
-2.349454590281940014e+01 -9.618219523582023811e+00 -4.875546077518952188e+02
-2.104829601323828570e+01 -1.127448440828296938e+01 -4.819950576772136515e+02
-3.178084350441236339e+01 -5.139120713754911307e+00 -4.851839212280006564e+02
-3.487442201242189554e+01 -3.613315674464311122e+00 -4.851839229321506650e+02
-3.103662333656310679e+01 2.994063796065858796e+01 -4.809217538756992099e+02
-2.139316991491751807e+01 -1.139531645524274595e+01 -4.883043132280850500e+02
-7.767021889522661127e+01 9.152907204001619945e+00 -4.851840023918608722e+02
-3.169560400867093009e+01 4.187576314211083783e+00 -4.820491895205771016e+02
-3.297155420466332743e+01 3.752204071858014967e+00 -4.851124930320657995e+02
-2.968683417321143381e+01 1.617207792518653164e+01 -4.838402280569829372e+02
-3.035332454768587240e+01 3.328524204669523812e+01 -4.867589968839149606e+02
-7.225373313489934901e+01 4.155024339713136783e+01 -4.876706628889238573e+02
-6.270063309718121047e+01 4.613907220508185247e+01 -4.851840006508113561e+02
-4.146914279619633703e+01 4.204537509291132125e+01 -4.864474311605529238e+02
-2.770438753218896721e+01 -2.609066203147397189e+01 -4.841928970998212662e+02
-3.468920697024753252e+01 -5.182784424787268307e+00 -4.884381387352627257e+02
-3.727781782536405331e+01 -2.411212225031761136e+00 -4.881337348592305148e+02
-3.580228270764746412e+01 -1.014150270735761916e+00 -4.851839171099137502e+02
-5.204783480446324972e+01 4.756993115122509863e+01 -4.851840016544420564e+02
-5.528894472048261122e+01 4.795747470697831716e+01 -4.881310598241263392e+02
-6.569187649251242078e+01 -2.099727071956360902e+01 -4.932573170994459701e+02
-2.009122260184825137e+01 -1.655970687694060572e+01 -4.892000170982337863e+02
-3.764074677871703045e+01 -4.710800145376413894e+00 -4.892243427917887857e+02
-2.879312926868146860e+01 3.026668329044668582e+01 -4.876617816141982189e+02
-5.721640116381569641e+01 4.765325966415383618e+01 -4.851840010582946547e+02
-3.316137791812619895e+01 -5.734654152776587743e+00 -4.889081765070604888e+02
-2.623393016764464392e+01 -7.114023383369770137e+00 -4.891624804011456717e+02
-4.024515169184478225e+01 -4.373285242070225287e+00 -4.894016805324375241e+02
-3.609667946206479883e+01 -5.315635020131026955e+00 -4.901262931850909581e+02
-3.935766208923821097e+01 -3.568652633822986253e+00 -4.889526360033818264e+02
-4.112772962378540598e+01 -3.751149496193696198e+00 -4.894906642021732068e+02
-4.010397082133771818e+01 -2.194151888073387902e+00 -4.891448237693345504e+02
-3.746335892972690118e+01 -1.034367129317772527e-01 -4.880787145743543647e+02
-3.397986286030506164e+01 2.065255438654984399e+00 -4.868206856923421810e+02
-3.289739402816130820e+01 3.929098088872186700e+00 -4.864352950054973803e+02
-3.382498167312696324e+01 7.852924964207248060e+00 -4.864290433183822984e+02
-4.918500009495806324e+01 4.718885404629403268e+01 -4.867798362604559088e+02
-2.741303178549841135e+01 -2.661767280392531276e+01 -4.867298070805349539e+02
-7.917872468512477724e+01 -6.490338994860615607e+00 -4.934782272218035928e+02
-7.413233153911789941e+01 -6.397926650158654027e+00 -4.881218972756195171e+02
-4.118809193941365265e+01 -3.798838690581257893e+00 -4.893162361877666626e+02
-3.947992893015649685e+01 -4.549219980887794001e+00 -4.895710500474631885e+02
-4.016922698914009970e+01 -3.010110596293318785e+00 -4.898704524651320185e+02
-3.839435302736483635e+01 -5.064316556877582087e+00 -4.906301922932175898e+02
-4.072308072189669303e+01 -1.513789712061674342e+00 -4.899818397938201429e+02
-3.983956882868498894e+01 2.558063939597264635e+00 -4.899661419653861003e+02
-3.536213346845133998e+01 2.914022184209850153e+00 -4.882611937200448438e+02
-4.219128261377203870e+01 7.804059018079717802e+00 -4.919601169387342452e+02
-3.148746108177492786e+01 1.125367043881462514e+01 -4.884097168330879413e+02
-3.091840893305889182e+01 1.220548922670271352e+01 -4.867273010615107864e+02
-7.550627683727147144e+01 3.544027542156634070e+01 -4.866346346090303996e+02
-3.212215378324188464e+01 3.449168339950771411e+01 -4.893097859930499567e+02
-5.496816326466139913e+01 4.686599511923185446e+01 -4.899756928116271979e+02
-5.384665888242552967e+01 -2.002671445885405177e+01 -4.876603574950976281e+02
-2.094057114493200444e+01 -8.324016599579271869e+00 -4.943529820936446981e+02
-2.260767035270277248e+01 -7.856352135862612940e+00 -4.921478071305324988e+02
-4.105355914993148048e+01 -3.191656303542016460e-01 -4.916910193706850123e+02
-4.128097729535436144e+01 1.705702349091415382e+00 -4.910826165033121811e+02
-3.857204809535502932e+01 3.792532111175130893e+00 -4.898794651329964154e+02
-3.569325963888881859e+01 6.402915354947197102e+00 -4.901807713659705428e+02
-7.792534125034840997e+01 2.277108883097860570e+01 -4.851840013841298287e+02
-8.397841089369239853e+01 1.236685665162402792e+01 -4.963979836417207707e+02
-8.038010218666639162e+01 7.630387199330346704e+00 -4.907650749797685990e+02
-2.944786004168452109e+01 2.020487627792513408e+01 -4.885512478514041845e+02
-8.032019414990291750e+01 2.827321418279248633e+01 -4.921383239780622603e+02
-6.104749868119954925e+01 4.682527606623351346e+01 -4.889069075348591014e+02
-5.077613814257340152e+01 4.726496908049452372e+01 -4.886160615185069673e+02
-3.060612037594090040e+01 -2.631713387323535969e+01 -4.883265686355743469e+02
-5.327325066053925440e+01 -2.375991679998998762e+01 -4.923340867227209969e+02
-5.958694966580909380e+01 -1.888313514263779780e+01 -4.885655319355687425e+02
-3.847770891020032025e+01 -4.449636906390714408e+00 -4.921006407601758497e+02
-2.517458549927323475e+01 -5.439999324165849970e+00 -4.946421217113172020e+02
-4.350842722238510163e+01 1.485001121969833360e-01 -4.950956642741479641e+02
-4.478568899429075145e+01 4.741891977374602440e+00 -4.946656322472806551e+02
-3.628416557379062368e+01 9.909235574286684667e+00 -4.914058615958156793e+02
-3.347979992129154425e+01 6.138905933132527082e+00 -4.881422629971654601e+02
-3.208874700627312393e+01 2.658148883363764625e+01 -4.923104813784063936e+02
-3.061377631987060965e+01 1.733739707821129628e+01 -4.901694461162601897e+02
-2.925949497606774941e+01 3.049240160570700198e+01 -4.897998001124225311e+02
-3.063644195683622229e+01 3.080094911319137196e+01 -4.912508193897475621e+02
-4.170989283010326432e+01 4.128083953461928957e+01 -4.890682500950202325e+02
-7.646889771305949068e+01 3.817031290980242630e+01 -4.921535828470468346e+02
-7.113543090734123098e+01 4.357187546112575660e+01 -4.894787090361360242e+02
-7.792343011459675495e+01 3.831719900935364365e+01 -4.971933679903364691e+02
-2.256483392662597254e+01 -2.370216570719125926e+01 -4.888655971429066085e+02
-4.003004716117494155e+01 -2.551467403652600652e+01 -4.923242671697004766e+02
-4.464740897123552088e+01 -2.358401456043309707e+01 -4.906640810498763585e+02
-2.156678493995998380e+01 -2.298308122331668102e+01 -4.950636941608748316e+02
-7.482759681629082138e+01 -1.516964896227547932e+01 -4.939987638882740839e+02
-7.344594990865331852e+01 -1.095790808583802800e+01 -4.898123750902224174e+02
-4.059576632511569017e+01 -2.309646641285157731e+00 -4.937559137760313206e+02
-4.450081376845464831e+01 7.424326987829946489e+00 -4.936415480037276780e+02
-3.342304078198155537e+01 1.060056032340968102e+01 -4.902203904927465032e+02
-4.001530583676062491e+01 1.489246271260006083e+01 -4.929211638088981431e+02
-3.360200568802454768e+01 1.611849525699285834e+01 -4.918950884885369987e+02
-3.562677799243839161e+01 2.323434653305042730e+01 -4.930281344971562589e+02
-3.685115259829721168e+01 3.233909099992248315e+01 -4.924022358810838114e+02
-3.436372989226045149e+01 3.431052269885971384e+01 -4.911762044756799241e+02
-4.158804301864841335e+01 3.947310659178818071e+01 -4.908604797012612835e+02
-4.945196608974349317e+01 4.475525579020768419e+01 -4.906452950697625397e+02
-7.182270611778236002e+01 4.323926362513541477e+01 -4.918180916409526162e+02
-6.402281700297916700e+01 4.496916122425588469e+01 -4.927331367584083637e+02
-6.732223691890979467e+01 4.429011216505153925e+01 -4.932676056519665622e+02
-6.402169397103945414e+01 -2.671449669523493142e+01 -4.979930740226678836e+02
-5.180402632411156105e+01 -2.753997286088810981e+01 -4.963399274242734691e+02
-1.961343368474768667e+01 -1.281262717821654817e+01 -4.911066348249723887e+02
-7.849015833933829356e+01 -6.304008062773247545e-02 -4.901932898275683215e+02
