-6.681839999999999691e+01 3.949810000000000088e+01 -4.132769999999999868e+02
-6.556480000000000530e+01 6.377459999999999951e+01 -4.137479999999999905e+02
2.123979999999999890e+01 8.930070000000000618e+01 -4.198480000000000132e+02
-4.340310000000000201e+01 9.910389999999999588e+01 -4.092210000000000036e+02
8.427160000000000650e+00 1.042810000000000059e+02 -4.120280000000000200e+02
-2.942879999999999896e+01 1.131089999999999947e+02 -4.139769999999999754e+02
-2.539089999999999847e+01 1.128319999999999936e+02 -4.093729999999999905e+02
-2.868449999999999989e+01 1.177510000000000057e+00 -4.118519999999999754e+02
-3.266910000000000025e+01 -1.718769999999999909e+00 -4.158020000000000209e+02
7.619249999999999634e-01 -1.282999999999999918e+00 -3.823260000000000218e+02
1.508769999999999945e+00 -3.012649999999999828e+00 -3.818159999999999741e+02
-4.405069999999999908e+01 4.119650000000000034e+00 -4.150880000000000223e+02
8.124890000000000612e+00 1.174959999999999916e+01 -4.169850000000000136e+02
-1.931510000000000105e+01 1.144899999999999949e+02 -4.123140000000000214e+02
-2.172080000000000055e+01 1.147030000000000030e+02 -4.147099999999999795e+02
-1.278870000000000040e+01 -1.157159999999999966e+00 -4.190670000000000073e+02
-6.437340000000000373e+01 3.017460000000000164e+01 -4.133829999999999814e+02
-6.771410000000000196e+01 5.185190000000000055e+01 -4.137119999999999891e+02
-6.553879999999999484e+01 7.036849999999999739e+01 -4.181109999999999900e+02
-3.277329999999999899e+01 1.098910000000000053e+02 -4.098129999999999882e+02
-3.345739999999999981e+01 1.115520000000000067e+02 -4.145649999999999977e+02
-3.738230000000000075e+01 1.102630000000000052e+02 -4.192640000000000100e+02
-1.525079999999999991e+01 1.140079999999999956e+02 -4.159100000000000250e+02
5.787539999999999907e+00 9.271319999999999339e+00 -4.134900000000000091e+02
1.154739999999999966e+01 1.484720000000000084e+01 -4.137269999999999754e+02
-1.001829999999999998e+01 1.126590000000000060e+02 -4.141170000000000186e+02
-2.570159999999999911e+01 -4.839559999999999640e+00 -4.186600000000000250e+02
-2.493870000000000076e+01 -1.956970000000000098e+00 -4.147819999999999823e+02
-5.633200000000000074e+01 1.496829999999999927e+01 -4.144950000000000045e+02
-6.163700000000000045e+01 1.989260000000000161e+01 -4.157389999999999759e+02
-5.920879999999999654e+01 1.288219999999999921e+01 -4.180480000000000018e+02
1.593570000000000064e+01 2.649220000000000041e+01 -4.177029999999999745e+02
-6.966039999999999566e+01 4.099159999999999826e+01 -4.162980000000000018e+02
-7.088339999999999463e+01 3.831949999999999790e+01 -4.184279999999999973e+02
-6.725430000000000064e+01 3.058419999999999916e+01 -4.161170000000000186e+02
2.524530000000000030e+01 6.392750000000000199e+01 -4.154599999999999795e+02
-6.178560000000000230e+01 7.319819999999999993e+01 -4.139990000000000236e+02
-4.215250000000000341e+01 1.038599999999999994e+02 -4.145000000000000000e+02
3.117659999999999876e+00 1.085490000000000066e+02 -4.140830000000000268e+02
-2.439599999999999991e+00 1.107830000000000013e+02 -4.156840000000000259e+02
-2.695469999999999899e+01 1.146889999999999930e+02 -4.192239999999999895e+02
-6.483220000000000205e+00 1.124719999999999942e+02 -4.197420000000000186e+02
-4.333529999999999660e+01 -5.971610000000000529e-01 -4.187690000000000055e+02
-4.387539999999999907e+01 2.263840000000000074e+00 -4.169300000000000068e+02
-5.590400000000000347e+01 1.188059999999999938e+01 -4.166539999999999964e+02
-6.628719999999999857e+01 2.237120000000000175e+01 -4.187529999999999859e+02
-5.490070000000000050e+01 8.383230000000000359e+01 -4.115140000000000100e+02
-1.892970000000000041e+01 -2.892970000000000041e+00 -4.178740000000000236e+02
6.796809999999999796e+00 6.632290000000000241e+00 -3.889470000000000027e+02
-5.324530000000000030e+01 7.238859999999999850e+00 -4.183799999999999955e+02
-5.084969999999999857e+01 4.814600000000000435e+00 -4.191709999999999923e+02
2.424869999999999948e+01 7.986629999999999541e+01 -4.188399999999999750e+02
-1.679260000000000019e+01 1.145250000000000057e+02 -4.194499999999999886e+02
-1.734750000000000014e+01 -4.378919999999999924e+00 -4.215319999999999823e+02
-4.288159999999999883e+01 -3.727790000000000159e+00 -4.217309999999999945e+02
-5.938550000000000040e+01 3.172159999999999869e+00 -4.236800000000000068e+02
-7.480279999999999596e+00 2.277829999999999799e+00 -4.221840000000000259e+02
-4.692649999999999721e+01 2.327569999999999986e-02 -4.201990000000000123e+02
-5.703410000000000224e+01 8.063560000000000727e+00 -4.198120000000000118e+02
-6.659329999999999927e+01 1.132210000000000072e+01 -4.242289999999999850e+02
-6.659489999999999554e+01 1.831350000000000122e+01 -4.208550000000000182e+02
1.330930000000000035e+01 1.994869999999999877e+01 -4.170869999999999891e+02
1.250220000000000020e+01 2.341199999999999903e+01 -4.211460000000000150e+02
1.840980000000000061e+01 3.306040000000000134e+01 -4.185419999999999732e+02
-7.488420000000000698e+01 3.484290000000000020e+01 -4.246159999999999854e+02
-7.419450000000000500e+01 5.106969999999999743e+01 -4.245670000000000073e+02
-7.048109999999999786e+01 5.045250000000000057e+01 -4.175640000000000214e+02
-5.065959999999999752e+01 9.499670000000000414e+01 -4.177119999999999891e+02
-5.057909999999999684e+01 9.915109999999999957e+01 -4.244039999999999964e+02
5.253299999999999637e-01 1.105439999999999969e+02 -4.195819999999999936e+02
7.438049999999999606e+00 1.065550000000000068e+02 -4.191809999999999832e+02
1.100450000000000017e+01 1.042139999999999986e+02 -4.210470000000000255e+02
-1.159290000000000020e+01 1.134129999999999967e+02 -4.207210000000000036e+02
-8.581450000000000466e-01 1.109419999999999931e+02 -4.207780000000000200e+02
-2.874070000000000036e+01 1.144749999999999943e+02 -4.214039999999999964e+02
-2.192869999999999919e+01 1.146989999999999981e+02 -4.209189999999999827e+02
-3.698910000000000053e+01 -9.254220000000000113e+00 -4.257180000000000177e+02
-3.323179999999999978e+01 -4.473840000000000039e+00 -4.190459999999999923e+02
-6.823749999999999716e+01 2.795339999999999847e+01 -4.183779999999999859e+02
-7.222599999999999909e+01 6.094480000000000075e+01 -4.245869999999999891e+02
-6.891060000000000230e+01 6.072319999999999851e+01 -4.179730000000000132e+02
-4.313550000000000040e+01 1.064440000000000026e+02 -4.223419999999999845e+02
-3.262169999999999703e+01 1.129360000000000070e+02 -4.194499999999999886e+02
-2.942569999999999908e+01 -7.133329999999999949e+00 -4.216070000000000277e+02
-2.038029999999999831e+01 -9.903890000000000526e+00 -4.284010000000000105e+02
-5.127900000000000347e+01 -3.776520000000000099e+00 -4.246200000000000045e+02
6.686590000000000034e-01 7.780300000000000438e+00 -4.202289999999999850e+02
3.494180000000000064e+00 1.430860000000000021e+01 -4.232959999999999923e+02
1.491310000000000002e+01 2.849070000000000036e+01 -4.219660000000000082e+02
1.667999999999999972e+01 3.345680000000000121e+01 -4.233369999999999891e+02
2.144310000000000116e+01 8.864090000000000202e+01 -4.258940000000000055e+02
1.515210000000000079e+01 9.991970000000000596e+01 -4.192620000000000005e+02
6.365610000000000213e+00 1.062379999999999995e+02 -4.241370000000000005e+02
-4.328560000000000407e+00 1.098469999999999942e+02 -4.261159999999999854e+02
-2.241659999999999897e+01 -7.173519999999999897e+00 -4.229839999999999804e+02
-2.089609999999999967e+00 1.061860000000000070e+01 -4.273870000000000005e+02
-4.196799999999999642e+00 5.590340000000000309e+00 -4.228799999999999955e+02
-7.291289999999999338e+01 2.783990000000000009e+01 -4.237090000000000032e+02
-7.412380000000000280e+01 2.003269999999999840e+01 -4.284959999999999809e+02
-7.642459999999999809e+01 3.842510000000000048e+01 -4.281920000000000073e+02
-7.002070000000000505e+01 6.970159999999999911e+01 -4.272509999999999764e+02
-5.484259999999999735e+01 9.783660000000000423e+01 -4.329080000000000155e+02
1.384459999999999980e+01 1.004789999999999992e+02 -4.250029999999999859e+02
9.578939999999999344e+00 1.032609999999999957e+02 -4.266340000000000146e+02
-2.489979999999999905e+01 1.138029999999999973e+02 -4.252610000000000241e+02
-3.796739999999999782e+01 1.110520000000000067e+02 -4.245520000000000209e+02
-1.363150000000000084e+01 -2.736369999999999969e+00 -4.230539999999999736e+02
-1.583939999999999948e+01 -8.864539999999999864e+00 -4.304499999999999886e+02
-6.507210000000000605e+01 4.816970000000000418e+00 -4.264239999999999782e+02
-7.122050000000000125e+01 1.685679999999999978e+01 -4.259110000000000014e+02
8.554500000000000437e-01 1.443689999999999962e+01 -4.259030000000000200e+02
5.143279999999999852e+00 2.002009999999999934e+01 -4.253620000000000232e+02
3.711730000000000196e+00 2.206040000000000134e+01 -4.283009999999999877e+02
8.377829999999999444e+00 2.632110000000000127e+01 -4.268890000000000100e+02
-7.486119999999999663e+01 4.243769999999999953e+01 -4.244340000000000259e+02
-7.376059999999999661e+01 5.896880000000000166e+01 -4.275059999999999718e+02
-6.709199999999999875e+01 7.412669999999999959e+01 -4.247980000000000018e+02
-6.294100000000000250e+01 7.941160000000000707e+01 -4.226200000000000045e+02
-5.066530000000000200e+01 1.031889999999999930e+02 -4.347239999999999895e+02
-1.802400000000000091e+01 1.129009999999999962e+02 -4.256650000000000205e+02
-2.737719999999999843e+01 -9.631629999999999470e+00 -4.252090000000000032e+02
-5.303690000000000282e+01 -6.082729999999999748e+00 -4.274870000000000232e+02
-7.655140000000000100e+01 2.819640000000000057e+01 -4.291209999999999809e+02
-4.610850000000000115e+00 1.091080000000000041e+02 -4.282019999999999982e+02
-1.954589999999999961e+01 1.124159999999999968e+02 -4.276440000000000055e+02
-3.224869999999999948e+01 1.133340000000000032e+02 -4.254730000000000132e+02
-4.499739999999999895e+01 -8.518499999999999517e+00 -4.277339999999999804e+02
-5.269409999999999883e+01 -6.993179999999999730e+00 -4.292909999999999968e+02
-5.845159999999999911e+01 -1.643850000000000033e+00 -4.268029999999999973e+02
-1.039990000000000059e+01 -9.278969999999999718e-01 -4.262350000000000136e+02
2.487109999999999843e+01 7.023779999999999291e+01 -4.162269999999999754e+02
2.422429999999999950e+01 7.939619999999999322e+01 -4.295249999999999773e+02
2.339120000000000132e+01 8.254970000000000141e+01 -4.242239999999999895e+02
1.719979999999999976e+01 9.610960000000000036e+01 -4.261709999999999923e+02
-6.621569999999999823e+01 3.835069999999999979e+00 -4.315939999999999941e+02
-7.049580000000000268e+01 1.119539999999999935e+01 -4.291850000000000023e+02
-1.549290000000000056e+00 1.478250000000000064e+01 -4.300000000000000000e+02
2.356869999999999798e+00 2.440230000000000032e+01 -4.305919999999999845e+02
-7.678350000000000364e+01 2.925919999999999987e+01 -4.306419999999999959e+02
-7.540170000000000528e+01 5.046759999999999735e+01 -4.285240000000000009e+02
2.131009999999999849e+01 8.661950000000000216e+01 -4.303589999999999804e+02
1.355710000000000015e+01 9.842010000000000502e+01 -4.299239999999999782e+02
5.594689999999999941e+00 1.037129999999999939e+02 -4.301700000000000159e+02
-3.720009999999999906e+01 -1.097119999999999962e+01 -4.290319999999999823e+02
-2.917320000000000135e+01 -1.278759999999999941e+01 -4.347950000000000159e+02
-2.639730000000000132e+01 -1.149000000000000021e+01 -4.290600000000000023e+02
-4.383229999999999649e+01 -1.000339999999999918e+01 -4.306949999999999932e+02
-6.746580000000000155e+01 5.855520000000000280e+00 -4.286290000000000191e+02
-7.645959999999999468e+01 3.684140000000000015e+01 -4.307880000000000109e+02
-7.535209999999999297e+01 5.389999999999999858e+01 -4.316120000000000232e+02
-7.272339999999999804e+01 6.678849999999999909e+01 -4.344680000000000177e+02
-6.867879999999999541e+01 7.658660000000000423e+01 -4.334130000000000109e+02
3.808749999999999858e+00 1.060169999999999959e+02 -4.277909999999999968e+02
-4.260860000000000269e+01 1.086059999999999945e+02 -4.282629999999999768e+02
-1.972439999999999927e+01 1.118910000000000053e+02 -4.296070000000000277e+02
-6.629590000000000316e+00 1.082849999999999966e+02 -4.309399999999999977e+02
-3.063129999999999953e+01 1.133239999999999981e+02 -4.284649999999999750e+02
-3.646260000000000190e+01 1.114270000000000067e+02 -4.302799999999999727e+02
-1.367890000000000050e+01 -9.664910000000000778e+00 -4.330950000000000273e+02
-1.344839999999999947e+01 -7.100699999999999790e+00 -4.313340000000000032e+02
-5.667159999999999798e+01 -3.702420000000000044e+00 -4.318179999999999836e+02
-6.167419999999999902e+01 -6.204070000000000418e-01 -4.293589999999999804e+02
-3.088319999999999954e+00 1.306600000000000072e+01 -4.345860000000000127e+02
1.765190000000000126e+01 9.363360000000000127e+01 -4.295400000000000205e+02
1.441639999999999944e+01 9.639100000000000534e+01 -4.313050000000000068e+02
-4.872780000000000200e+01 -9.063179999999999126e+00 -4.314789999999999850e+02
-7.538330000000000197e+00 1.628120000000000012e+00 -4.329220000000000255e+02
-6.891930000000000334e+00 4.369089999999999918e+00 -4.308369999999999891e+02
-1.933780000000000054e+00 1.550910000000000011e+01 -4.323319999999999936e+02
5.216979999999999951e-01 2.619770000000000110e+01 -4.333530000000000086e+02
-7.584019999999999584e+01 3.165510000000000090e+01 -4.328229999999999791e+02
2.597970000000000113e+01 6.973950000000000671e+01 -4.288009999999999877e+02
2.021480000000000032e+01 8.753390000000000271e+01 -4.314150000000000205e+02
-3.044970000000000176e+00 1.064410000000000025e+02 -4.320319999999999823e+02
-2.118919999999999959e+01 1.113640000000000043e+02 -4.312710000000000150e+02
-2.084209999999999852e+01 1.099530000000000030e+02 -4.334909999999999854e+02
-2.890500000000000114e+01 1.120049999999999955e+02 -4.323070000000000164e+02
-6.361240000000000094e+01 8.080549999999999677e-01 -4.311820000000000164e+02
-3.917530000000000179e+00 1.036439999999999984e+01 -4.369549999999999841e+02
-7.169870000000000232e+01 1.474709999999999965e+01 -4.326829999999999927e+02
-7.011090000000000089e+01 1.001880000000000059e+01 -4.314409999999999741e+02
-7.410490000000000066e+01 1.907610000000000028e+01 -4.313870000000000005e+02
-7.420959999999999468e+01 2.272490000000000165e+01 -4.328629999999999995e+02
-2.477100000000000080e+00 2.061090000000000089e+01 -4.363330000000000268e+02
-2.032610000000000028e+00 3.035790000000000077e+01 -4.359950000000000045e+02
-3.790169999999999817e+00 3.597440000000000282e+01 -4.379359999999999786e+02
1.915129999999999999e+00 3.879310000000000258e+01 -4.348399999999999750e+02
-4.378470000000000084e+00 4.534190000000000254e+01 -4.366410000000000196e+02
1.912760000000000105e+01 7.105809999999999604e+01 -4.357880000000000109e+02
2.405630000000000024e+01 7.431090000000000373e+01 -4.315299999999999727e+02
-6.424450000000000216e+01 8.389300000000000068e+01 -4.328029999999999973e+02
2.160320000000000107e+01 8.114379999999999882e+01 -4.321940000000000168e+02
1.787770000000000081e+01 8.568170000000000641e+01 -4.339100000000000250e+02
1.379400000000000048e+01 9.285859999999999559e+01 -4.335280000000000200e+02
9.856859999999999289e+00 1.000259999999999962e+02 -4.317599999999999909e+02
5.214030000000000165e+00 1.002150000000000034e+02 -4.335790000000000077e+02
-5.305419999999999803e+00 1.053910000000000053e+02 -4.336990000000000123e+02
-1.101870000000000083e+01 1.052069999999999936e+02 -4.354329999999999927e+02
-1.040830000000000055e+01 1.080199999999999960e+02 -4.328650000000000091e+02
-2.973519999999999897e+01 1.103889999999999958e+02 -4.351100000000000136e+02
-3.470320000000000249e+01 1.105169999999999959e+02 -4.345129999999999768e+02
-1.393660000000000032e+01 -1.123080000000000034e+01 -4.345899999999999750e+02
-1.977250000000000085e+01 -1.360960000000000036e+01 -4.344750000000000227e+02
-5.060070000000000334e+01 -6.456959999999999589e+00 -4.335299999999999727e+02
-4.696159999999999712e+01 -9.190070000000000405e+00 -4.326190000000000282e+02
-3.882549999999999812e+01 -1.038219999999999921e+01 -4.341159999999999854e+02
-4.622299999999999898e+01 -4.932599999999999874e+00 -4.357620000000000005e+02
-8.071790000000000020e+00 -8.774110000000000520e-01 -4.351639999999999873e+02
-6.294519999999999982e+01 4.269260000000000055e+00 -4.335769999999999982e+02
-5.674649999999999750e+01 -2.233530000000000015e+00 -4.332040000000000077e+02
-6.836920000000000641e+01 8.427699999999999747e+00 -4.327490000000000236e+02
-6.901709999999999923e+01 1.510330000000000084e+01 -4.341929999999999836e+02
-5.259709999999999752e+01 3.051270000000000149e+00 -4.363980000000000246e+02
-6.194429999999999836e+01 1.688879999999999981e+01 -4.367230000000000132e+02
-6.317470000000000141e+01 2.702659999999999840e+01 -4.385880000000000223e+02
-7.406350000000000477e+01 2.891019999999999968e+01 -4.341190000000000282e+02
-6.934739999999999327e+01 3.065630000000000166e+01 -4.366789999999999736e+02
-7.194729999999999848e+01 4.038110000000000355e+01 -4.365330000000000155e+02
-7.508329999999999416e+01 5.038609999999999900e+01 -4.329499999999999886e+02
-6.068990000000000329e+00 5.161160000000000281e+01 -4.374150000000000205e+02
-7.412789999999999679e+01 5.421509999999999962e+01 -4.368360000000000127e+02
-3.198240000000000194e+00 6.261079999999999757e+01 -4.380210000000000150e+02
1.454539999999999944e+00 5.605460000000000065e+01 -4.364789999999999850e+02
5.852319999999999744e+00 5.672529999999999717e+01 -4.362590000000000146e+02
-7.097239999999999327e+01 7.548470000000000368e+01 -4.409850000000000136e+02
-9.140090000000000714e+00 -1.221180000000000021e+01 -4.401890000000000214e+02
-3.755579999999999785e+01 -7.828079999999999927e+00 -4.380049999999999955e+02
-1.153810000000000002e+01 -1.238519999999999932e+01 -4.374220000000000255e+02
-5.035569999999999879e+00 4.306790000000000340e+00 -4.391840000000000259e+02
-4.348010000000000019e+01 -5.936580000000000190e-01 -4.386990000000000123e+02
-5.530089999999999861e+01 1.486309999999999931e+01 -4.382169999999999845e+02
-4.868319999999999936e+01 9.850459999999999994e+00 -4.393480000000000132e+02
-7.400190000000000623e+01 4.630850000000000222e+01 -4.349220000000000255e+02
9.030490000000000350e+00 6.463410000000000366e+01 -4.380179999999999723e+02
3.545599999999999863e+00 5.987270000000000181e+01 -4.371259999999999764e+02
1.818619999999999948e+01 7.801519999999999300e+01 -4.355480000000000018e+02
1.251939999999999920e+01 7.968970000000000198e+01 -4.383570000000000277e+02
-6.262510000000000332e+01 9.097039999999999793e+01 -4.414039999999999964e+02
3.614390000000000214e+00 9.533280000000000598e+01 -4.367040000000000077e+02
-4.199329999999999785e+01 1.092229999999999990e+02 -4.343700000000000045e+02
-4.516519999999999868e+01 1.072609999999999957e+02 -4.387839999999999918e+02
-2.113800000000000168e+01 -1.544660000000000011e+01 -4.407620000000000005e+02
-3.171959999999999980e+01 -9.864050000000000651e+00 -4.411080000000000041e+02
-4.587610000000000099e+01 4.769630000000000258e+00 -4.393380000000000223e+02
-4.164339999999999975e+01 3.337299999999999933e+00 -4.419780000000000086e+02
-6.675039999999999907e+01 3.634790000000000276e+01 -4.391080000000000041e+02
-6.518180000000000085e+00 4.207229999999999848e+01 -4.381530000000000200e+02
-1.159259999999999913e+01 4.495190000000000197e+01 -4.408059999999999832e+02
-9.304489999999999483e+00 4.813190000000000168e+01 -4.384279999999999973e+02
-7.869320000000000093e+00 5.788250000000000028e+01 -4.382149999999999750e+02
-1.070059999999999967e+01 7.440049999999999386e+01 -4.404030000000000200e+02
-8.921879999999999811e+00 6.723029999999999973e+01 -4.392359999999999900e+02
1.308639999999999937e+01 8.750979999999999848e+01 -4.361440000000000055e+02
5.023539999999999672e+00 8.642119999999999891e+01 -4.395520000000000209e+02
-5.592719999999999914e+01 9.993699999999999761e+01 -4.411349999999999909e+02
-3.304860000000000042e+01 1.070769999999999982e+02 -4.386019999999999754e+02
-1.450259999999999927e+01 -1.545299999999999940e+01 -4.395609999999999786e+02
-4.398729999999999585e+00 3.174719999999999942e+01 -4.384409999999999741e+02
-1.761329999999999885e+01 6.762680000000000291e+01 -4.400090000000000146e+02
4.578400000000000247e-01 7.401779999999999404e+01 -4.406159999999999854e+02
4.749069999999999681e+00 6.931699999999999307e+01 -4.393159999999999741e+02
1.654710000000000036e+01 6.763280000000000314e+01 -4.367139999999999986e+02
-2.155420000000000158e+01 7.567959999999999354e+01 -4.406549999999999727e+02
-2.646640000000000015e+01 7.683509999999999707e+01 -4.420350000000000250e+02
-2.009299999999999997e+01 1.069650000000000034e+02 -4.361070000000000277e+02
-5.304149999999999920e+01 1.026940000000000026e+02 -4.428360000000000127e+02
-4.577680000000000149e+01 1.072890000000000015e+02 -4.348570000000000277e+02
-1.630610000000000070e+01 -1.680640000000000001e+01 -4.429340000000000259e+02
-2.195210000000000150e+01 -1.464719999999999978e+01 -4.364549999999999841e+02
-2.913639999999999830e+01 -1.266239999999999988e+01 -4.378190000000000168e+02
-9.009959999999999525e+00 -1.482039999999999935e+01 -4.429719999999999800e+02
-5.807220000000000049e+00 -2.236580000000000013e+00 -4.400339999999999918e+02
-3.184019999999999850e+00 2.276020000000000110e+01 -4.387359999999999900e+02
-5.538900000000000290e+01 2.029820000000000135e+01 -4.397579999999999814e+02
-5.170810000000000173e+01 2.308909999999999840e+01 -4.432880000000000109e+02
-7.058749999999999858e+00 3.675600000000000023e+01 -4.413179999999999836e+02
-1.561860000000000070e+01 5.458959999999999724e+01 -4.405600000000000023e+02
-1.896470000000000056e+01 5.048319999999999652e+01 -4.436279999999999859e+02
-7.242340000000000089e+01 5.275119999999999720e+01 -4.395210000000000150e+02
-7.293170000000000641e+01 5.872959999999999781e+01 -4.412060000000000173e+02
-2.139979999999999905e+01 6.345219999999999771e+01 -4.412860000000000014e+02
-7.375889999999999702e+01 6.215939999999999799e+01 -4.405989999999999895e+02
-7.456829999999999359e+01 5.897030000000000172e+01 -4.358340000000000032e+02
-3.005799999999999983e+01 7.442929999999999779e+01 -4.436909999999999741e+02
-9.582670000000000243e+00 8.113540000000000418e+01 -4.417909999999999968e+02
1.139809999999999945e+01 7.461069999999999425e+01 -4.393670000000000186e+02
6.977710000000000079e+00 8.061539999999999395e+01 -4.402219999999999800e+02
-7.622320000000000206e+00 9.723779999999999291e+01 -4.388919999999999959e+02
-3.591040000000000010e+00 8.958159999999999457e+01 -4.410029999999999859e+02
-4.837069999999999936e+01 1.463490000000000002e+01 -4.411859999999999786e+02
-4.582410000000000139e+01 1.602489999999999881e+01 -4.436659999999999968e+02
-7.090720000000000312e+01 4.742739999999999867e+01 -4.396759999999999877e+02
-2.660559999999999903e+01 8.916039999999999566e+01 -4.428790000000000191e+02
-1.840540000000000020e+01 7.707319999999999993e+01 -4.406379999999999768e+02
-2.468410000000000082e+01 8.272839999999999350e+01 -4.421639999999999873e+02
-2.086809999999999832e+01 9.948749999999999716e+01 -4.407980000000000018e+02
-3.660560000000000258e+01 1.023780000000000001e+02 -4.426399999999999864e+02
-3.838110000000000355e+01 6.507609999999999673e+00 -4.468899999999999864e+02
-6.121569999999999823e+01 3.194419999999999860e+01 -4.416759999999999877e+02
-1.292880000000000074e+01 4.346020000000000039e+01 -4.430819999999999936e+02
-8.721560000000000201e+00 3.719980000000000331e+01 -4.447590000000000146e+02
-7.335620000000000118e+01 6.634069999999999823e+01 -4.408240000000000123e+02
7.376159999999999606e+00 7.362789999999999679e+01 -4.401179999999999950e+02
-3.777260000000000062e+00 8.172230000000000416e+01 -4.418620000000000232e+02
-6.516759999999999309e+01 8.855029999999999291e+01 -4.463650000000000091e+02
-3.253329999999999700e+01 8.493739999999999668e+01 -4.443439999999999941e+02
-3.418659999999999854e+01 9.301009999999999422e+01 -4.442409999999999854e+02
-1.297129999999999894e+00 8.490089999999999293e+01 -4.415899999999999750e+02
-1.625459999999999994e+01 9.449760000000000559e+01 -4.417730000000000246e+02
-4.712109999999999843e+01 1.053670000000000044e+02 -4.429359999999999786e+02
-4.457639999999999958e+01 1.046069999999999993e+02 -4.446360000000000241e+02
-4.092960000000000065e+01 1.076299999999999955e+02 -4.392359999999999900e+02
-3.953359999999999985e+01 1.051230000000000047e+02 -4.420280000000000200e+02
-6.508830000000000382e+01 4.876429999999999865e+01 -4.467900000000000205e+02
-6.687479999999999336e+01 4.702949999999999875e+01 -4.435190000000000055e+02
-7.004420000000000357e+01 6.624850000000000705e+01 -4.465099999999999909e+02
-6.806210000000000093e+01 5.468820000000000192e+01 -4.456929999999999836e+02
-2.625100000000000122e+01 6.423950000000000671e+01 -4.432660000000000196e+02
-2.449080000000000013e+01 5.754010000000000247e+01 -4.441809999999999832e+02
-3.488000000000000256e+01 7.249509999999999366e+01 -4.468940000000000055e+02
-6.833150000000000546e+01 8.240059999999999718e+01 -4.461360000000000241e+02
-1.665210000000000079e+01 8.746529999999999916e+01 -4.424130000000000109e+02
-1.349810000000000088e+01 8.939270000000000493e+01 -4.423539999999999850e+02
-2.874429999999999907e+01 9.542640000000000100e+01 -4.426899999999999977e+02
-2.664509999999999934e+01 9.972369999999999379e+01 -4.415570000000000164e+02
-3.730830000000000268e+01 9.293819999999999482e+01 -4.453229999999999791e+02
-4.155120000000000147e+01 1.006760000000000019e+02 -4.455240000000000009e+02
-5.708140000000000214e+01 1.005999999999999943e+02 -4.463929999999999723e+02
-1.102640000000000065e+01 -1.679939999999999856e+01 -4.437149999999999750e+02
-4.170049999999999812e+01 1.814079999999999870e+01 -4.484519999999999982e+02
-4.433469999999999800e+01 2.499759999999999849e+01 -4.496589999999999918e+02
-6.571469999999999345e+01 5.415800000000000125e+01 -4.484820000000000277e+02
-7.193000000000000682e+01 7.265070000000000050e+01 -4.424700000000000273e+02
-3.917139999999999844e+01 9.162680000000000291e+01 -4.463770000000000095e+02
-3.945779999999999887e+01 8.976449999999999818e+01 -4.472429999999999950e+02
-4.175439999999999685e+01 1.013179999999999978e+02 -4.456089999999999804e+02
-4.058559999999999945e+01 9.695369999999999777e+01 -4.459309999999999832e+02
-2.071829999999999927e+01 -1.513540000000000063e+01 -4.475079999999999814e+02
-6.375239999999999796e+00 -1.080780000000000030e+01 -4.438380000000000223e+02
-4.012369999999999770e+00 9.023659999999999570e+00 -4.427679999999999723e+02
-3.668750000000000178e+00 8.948380000000000223e+00 -4.519769999999999754e+02
-3.947919999999999874e+00 1.833340000000000103e+01 -4.477559999999999718e+02
-7.945409999999999862e+00 3.368739999999999668e+01 -4.490810000000000173e+02
-5.064370000000000260e+00 2.730689999999999884e+01 -4.431800000000000068e+02
-6.238509999999999778e+00 2.851520000000000010e+01 -4.500500000000000114e+02
-5.453399999999999892e+01 3.100130000000000052e+01 -4.460869999999999891e+02
-1.354599999999999937e+01 4.130469999999999686e+01 -4.484220000000000255e+02
-1.751719999999999899e+01 4.625039999999999907e+01 -4.461659999999999968e+02
-6.029429999999999978e+01 3.637879999999999825e+01 -4.446840000000000259e+02
-2.349530000000000030e+01 5.232979999999999876e+01 -4.462749999999999773e+02
-3.583330000000000126e+01 6.320000000000000284e+01 -4.500579999999999927e+02
-3.945969999999999800e+01 1.026209999999999951e+02 -4.480969999999999800e+02
-4.229500000000000171e+01 1.041050000000000040e+02 -4.487280000000000086e+02
-4.663589999999999947e+01 1.052309999999999945e+02 -4.465210000000000150e+02
-3.020639999999999858e+01 5.699340000000000117e+01 -4.488070000000000164e+02
-2.943649999999999878e+01 5.935090000000000288e+01 -4.470199999999999818e+02
-6.899389999999999645e+01 7.932909999999999684e+01 -4.473399999999999750e+02
-3.890109999999999957e+01 8.581119999999999948e+01 -4.474379999999999882e+02
-3.997319999999999851e+01 9.011020000000000607e+01 -4.481209999999999809e+02
-3.938329999999999842e+01 1.024830000000000041e+02 -4.481179999999999950e+02
-3.954229999999999734e+01 9.789780000000000371e+01 -4.484639999999999986e+02
-5.076259999999999906e+01 1.044389999999999930e+02 -4.452599999999999909e+02
-4.923590000000000089e+01 1.049549999999999983e+02 -4.486139999999999759e+02
-5.752210000000000178e+01 1.004629999999999939e+02 -4.494959999999999809e+02
-1.268340000000000067e+01 -1.779100000000000037e+01 -4.478929999999999723e+02
-3.302909999999999968e+01 -3.622030000000000083e+00 -4.459739999999999895e+02
-4.464870000000000339e+00 -3.213459999999999983e+00 -4.445699999999999932e+02
-2.687279999999999891e+00 -9.018309999999999604e+00 -4.548269999999999982e+02
-3.167909999999999826e+01 -2.447519999999999918e+00 -4.502169999999999845e+02
-5.632410000000000139e+01 3.920920000000000272e+01 -4.509909999999999854e+02
-4.885130000000000194e+01 2.756090000000000018e+01 -4.479300000000000068e+02
-5.884729999999999706e+01 3.858780000000000143e+01 -4.481560000000000059e+02
-2.626399999999999935e+01 5.275249999999999773e+01 -4.483860000000000241e+02
-4.245009999999999906e+01 7.601489999999999725e+01 -4.511360000000000241e+02
-3.648460000000000036e+01 8.441110000000000468e+01 -4.461349999999999909e+02
-4.017830000000000013e+01 9.619519999999999982e+01 -4.492409999999999854e+02
-4.104679999999999751e+01 9.913120000000000687e+01 -4.497389999999999759e+02
-4.543880000000000052e+01 1.053070000000000022e+02 -4.486150000000000091e+02
-4.276189999999999714e+01 1.039729999999999990e+02 -4.493799999999999955e+02
-1.068360000000000021e+01 -1.848450000000000060e+01 -4.522819999999999823e+02
-9.318089999999999762e+00 -1.744780000000000086e+01 -4.487210000000000036e+02
-3.061580000000000013e+01 -1.280959999999999965e+01 -4.552740000000000009e+02
-3.780349999999999966e+01 -5.868310000000000137e+00 -4.545369999999999777e+02
-3.790109999999999957e+01 1.568239999999999945e+01 -4.516449999999999818e+02
-2.561789999999999878e+01 5.094919999999999760e+01 -4.496669999999999732e+02
-1.710930000000000106e+01 4.293889999999999674e+01 -4.506619999999999777e+02
-6.104849999999999710e+01 4.690509999999999735e+01 -4.520020000000000095e+02
-3.141140000000000043e+01 5.573210000000000264e+01 -4.503059999999999832e+02
-6.523569999999999425e+01 6.394969999999999999e+01 -4.520600000000000023e+02
-7.048890000000000100e+01 7.295510000000000161e+01 -4.459019999999999868e+02
-4.150569999999999737e+01 6.763249999999999318e+01 -4.521770000000000209e+02
-6.474800000000000466e+01 8.824370000000000402e+01 -4.503029999999999973e+02
-5.890749999999999886e+01 9.847390000000000043e+01 -4.514689999999999941e+02
-2.167350000000000065e+01 -1.465169999999999995e+01 -4.519209999999999923e+02
-3.521659999999999791e+00 -9.320719999999999672e+00 -4.501850000000000023e+02
-5.628720000000000390e+00 -1.453009999999999913e+01 -4.497690000000000055e+02
-2.688380000000000081e+01 -9.998139999999999361e+00 -4.492780000000000200e+02
-3.146320000000000050e+01 -8.933970000000000411e+00 -4.536720000000000255e+02
-3.056449999999999889e+01 -5.323050000000000281e+00 -4.523969999999999914e+02
-3.785730000000000217e+01 -2.353610000000000202e+00 -4.537049999999999841e+02
-3.433529999999999660e+01 4.199679999999999858e+00 -4.521070000000000277e+02
-4.295409999999999684e+01 6.056339999999999613e+00 -4.543129999999999882e+02
-4.757580000000000098e+01 3.021310000000000073e+01 -4.505930000000000177e+02
-2.766029999999999944e+01 4.969480000000000075e+01 -4.514429999999999836e+02
-6.467889999999999873e+01 5.822109999999999985e+01 -4.513179999999999836e+02
-4.225849999999999795e+01 8.548430000000000462e+01 -4.498949999999999818e+02
-6.101250000000000284e+01 9.589209999999999923e+01 -4.503140000000000214e+02
-4.758359999999999701e+01 8.934340000000000259e+01 -4.529110000000000014e+02
-5.194310000000000116e+01 1.010520000000000067e+02 -4.519110000000000014e+02
-4.394189999999999685e+01 1.025000000000000000e+02 -4.503129999999999882e+02
-5.387850000000000250e+01 1.021680000000000064e+02 -4.507760000000000105e+02
-4.721379999999999910e+01 1.053509999999999991e+02 -4.489909999999999854e+02
-7.000810000000000421e+00 -1.725369999999999848e+01 -4.516209999999999809e+02
-1.556060000000000088e+01 -1.764560000000000173e+01 -4.516929999999999836e+02
-4.299669999999999703e+01 9.621450000000000280e-01 -4.546139999999999759e+02
-3.281539999999999679e+01 -9.206410000000000426e-01 -4.523729999999999905e+02
-4.211299999999999955e+01 -3.387189999999999923e+00 -4.555609999999999786e+02
-3.784499999999999886e+01 2.011220000000000141e+01 -4.539950000000000045e+02
-3.816179999999999950e+01 2.176190000000000069e+01 -4.535539999999999736e+02
-4.827420000000000044e+00 2.255290000000000106e+01 -4.505760000000000218e+02
-6.609289999999999665e+00 2.499990000000000023e+01 -4.548290000000000077e+02
-4.108200000000000074e+01 2.723580000000000112e+01 -4.526059999999999945e+02
-4.884400000000000119e+01 3.563530000000000086e+01 -4.527699999999999818e+02
-1.458270000000000088e+01 3.940379999999999683e+01 -4.522169999999999845e+02
-3.264189999999999969e+01 4.913439999999999941e+01 -4.533729999999999905e+02
-3.499389999999999645e+01 5.587060000000000315e+01 -4.518210000000000264e+02
-4.585999999999999943e+01 6.192159999999999798e+01 -4.557420000000000186e+02
-6.114430000000000121e+01 7.283599999999999852e+01 -4.556309999999999718e+02
-6.454850000000000421e+01 8.444580000000000553e+01 -4.521480000000000246e+02
-6.741140000000000043e+01 7.873980000000000246e+01 -4.498999999999999773e+02
-1.472530000000000072e+01 -1.889939999999999998e+01 -4.540120000000000005e+02
-2.828280000000000172e+01 -1.143520000000000003e+01 -4.536580000000000155e+02
-2.683350000000000080e+01 -1.053759999999999941e+01 -4.525079999999999814e+02
-3.622780000000000200e+01 1.048300000000000054e+01 -4.525950000000000273e+02
-4.887850000000000250e+01 1.188279999999999959e+01 -4.556530000000000200e+02
-4.984490000000000265e+01 1.822119999999999962e+01 -4.566360000000000241e+02
-3.833579999999999899e+01 2.923079999999999856e+01 -4.550819999999999936e+02
-4.419669999999999987e+01 3.777329999999999899e+01 -4.545339999999999918e+02
-1.022770000000000046e+01 3.593299999999999983e+01 -4.505120000000000005e+02
-2.843680000000000163e+01 3.703110000000000213e+01 -4.581370000000000005e+02
-2.270429999999999993e+01 4.595280000000000342e+01 -4.519929999999999950e+02
-2.905770000000000053e+01 3.994050000000000011e+01 -4.556820000000000164e+02
-2.990269999999999939e+01 4.334620000000000317e+01 -4.542080000000000268e+02
-5.583420000000000272e+01 4.424730000000000274e+01 -4.555579999999999927e+02
-3.906700000000000017e+01 3.541760000000000019e+01 -4.552350000000000136e+02
-4.144930000000000092e+01 4.241479999999999961e+01 -4.551999999999999886e+02
-3.955290000000000106e+01 4.992730000000000246e+01 -4.547989999999999782e+02
-5.986749999999999972e+01 5.495830000000000126e+01 -4.564540000000000077e+02
-6.025469999999999970e+01 7.799639999999999418e+01 -4.554080000000000155e+02
-5.313510000000000133e+01 9.536839999999999407e+01 -4.539680000000000177e+02
-1.311480000000000068e+01 -2.036029999999999873e+01 -4.585880000000000223e+02
-2.225319999999999965e+01 -1.693029999999999902e+01 -4.561970000000000027e+02
-3.485889999999999844e+01 -1.007220000000000049e+01 -4.559820000000000277e+02
-2.381109999999999971e+01 -1.366419999999999924e+01 -4.534119999999999777e+02
-2.719419999999999860e+01 -9.460889999999999134e+00 -4.519569999999999936e+02
-4.400030000000000285e+01 -3.584090000000000220e+00 -4.575889999999999986e+02
-3.169930000000000092e+01 -2.537510000000000154e+00 -4.516480000000000246e+02
-2.507519999999999971e+00 -6.663730000000000153e+00 -4.594270000000000209e+02
-4.725220000000000198e+01 4.022979999999999889e-01 -4.578149999999999977e+02
-3.316360000000000241e+01 9.423789999999999667e-01 -4.523299999999999841e+02
-3.577009999999999934e+01 5.189560000000000173e+00 -4.529490000000000123e+02
-3.613340000000000174e+01 9.637769999999999726e+00 -4.527850000000000250e+02
-3.745100000000000051e+01 1.165429999999999922e+01 -4.535480000000000018e+02
-5.351879999999999882e+01 1.360350000000000037e+01 -4.570910000000000082e+02
-3.776209999999999667e+01 2.939699999999999847e+01 -4.563199999999999932e+02
-5.918510000000000382e+00 2.172970000000000113e+01 -4.578929999999999723e+02
-3.581139999999999901e+01 3.414540000000000219e+01 -4.560880000000000223e+02
-3.357090000000000174e+01 3.452819999999999823e+01 -4.572799999999999727e+02
-1.135060000000000002e+01 3.133180000000000121e+01 -4.564030000000000200e+02
-5.163499999999999801e+01 4.386050000000000182e+01 -4.565760000000000218e+02
-4.315070000000000050e+01 5.636860000000000070e+01 -4.554959999999999809e+02
-6.113340000000000174e+01 8.995879999999999654e+01 -4.539499999999999886e+02
-6.194140000000000157e+01 9.310840000000000316e+01 -4.521940000000000168e+02
-5.591839999999999833e+01 9.971980000000000643e+01 -4.522620000000000005e+02
-5.865760000000000218e+01 9.508549999999999613e+01 -4.535009999999999764e+02
-1.806859999999999999e+01 -1.779279999999999973e+01 -4.551209999999999809e+02
-2.709159999999999968e+01 -1.549200000000000088e+01 -4.564780000000000086e+02
-2.751300000000000168e+01 -1.600919999999999987e+01 -4.585380000000000109e+02
-5.370729999999999649e+01 7.662939999999999863e+00 -4.596399999999999864e+02
-5.716839999999999833e+01 1.439489999999999981e+01 -4.595360000000000014e+02
-4.955360000000000298e+01 6.647029999999999994e+00 -4.567749999999999773e+02
-3.664670000000000094e+00 1.018520000000000003e+01 -4.600090000000000146e+02
-3.936189999999999856e+01 1.041239999999999988e+01 -4.540389999999999873e+02
-4.849439999999999884e+01 2.280979999999999919e+01 -4.581349999999999909e+02
-4.150979999999999848e+01 2.023069999999999879e+01 -4.559900000000000091e+02
-5.543460000000000321e+01 1.960450000000000159e+01 -4.577090000000000032e+02
-3.810540000000000305e+01 2.327289999999999992e+01 -4.550939999999999941e+02
-1.441569999999999929e+01 3.192869999999999919e+01 -4.589279999999999973e+02
-1.999620000000000175e+01 3.780080000000000240e+01 -4.561859999999999786e+02
-5.156909999999999883e+01 7.926690000000000680e+01 -4.555710000000000264e+02
-5.731600000000000250e+01 8.997539999999999338e+01 -4.551059999999999945e+02
-4.862160000000000082e+01 9.758669999999999334e+01 -4.527440000000000282e+02
-6.894840000000000302e+00 -1.838830000000000098e+01 -4.556019999999999754e+02
-6.932850000000000179e+00 -1.922889999999999944e+01 -4.603009999999999877e+02
-4.379010000000000069e+00 1.770439999999999969e+01 -4.547029999999999745e+02
-5.675610000000000355e+01 2.446280000000000143e+01 -4.592029999999999745e+02
-6.074199999999999733e+01 2.403650000000000020e+01 -4.614680000000000177e+02
-4.390149999999999864e+01 4.756219999999999715e+01 -4.562839999999999918e+02
-6.239200000000000301e+01 6.715460000000000207e+01 -4.553799999999999955e+02
-5.528479999999999706e+01 7.906820000000000448e+01 -4.561920000000000073e+02
-5.790780000000000172e+01 7.085850000000000648e+01 -4.571870000000000118e+02
-5.464039999999999964e+01 7.194700000000000273e+01 -4.571789999999999736e+02
-4.031889999999999930e+01 -7.643849999999999589e+00 -4.592719999999999914e+02
-4.083219999999999850e+00 -1.539780000000000015e+01 -4.565880000000000223e+02
-3.433940000000000214e+00 4.194320000000000270e+00 -4.599010000000000105e+02
-5.910770000000000124e+01 2.115540000000000020e+01 -4.598369999999999891e+02
-6.252969999999999828e+01 1.848120000000000118e+01 -4.642429999999999950e+02
-4.714430000000000121e+01 2.671209999999999951e+01 -4.601979999999999791e+02
-4.169069999999999965e+01 2.619059999999999988e+01 -4.586820000000000164e+02
-5.888190000000000168e+01 4.700670000000000215e+01 -4.550679999999999836e+02
-5.990540000000000020e+01 6.383899999999999864e+01 -4.575509999999999877e+02
-5.065650000000000119e+01 7.512069999999999936e+01 -4.557029999999999745e+02
-3.799289999999999878e+01 2.913840000000000074e+01 -4.576770000000000209e+02
-9.691140000000000754e+00 2.836329999999999885e+01 -4.576120000000000232e+02
-3.839600000000000080e+01 3.196130000000000138e+01 -4.613750000000000000e+02
-2.254860000000000042e+01 3.584749999999999659e+01 -4.594329999999999927e+02
-5.717699999999999960e+01 5.020879999999999654e+01 -4.574529999999999745e+02
-4.863269999999999982e+01 4.709499999999999886e+01 -4.573690000000000282e+02
-5.003470000000000084e+01 5.268229999999999791e+01 -4.584680000000000177e+02
-5.305449999999999733e+01 4.769539999999999935e+01 -4.577819999999999823e+02
-5.523360000000000269e+01 5.416429999999999723e+01 -4.586490000000000009e+02
-5.840599999999999881e+01 6.013799999999999812e+01 -4.585550000000000068e+02
-4.812100000000000222e+01 5.323839999999999861e+01 -4.579189999999999827e+02
-5.288880000000000337e+01 6.191550000000000153e+01 -4.584580000000000268e+02
-5.611950000000000216e+01 6.189569999999999794e+01 -4.588340000000000032e+02
-1.951429999999999865e+01 -1.848999999999999844e+01 -4.588709999999999809e+02
-2.154289999999999949e+01 -1.901559999999999917e+01 -4.643290000000000077e+02
-5.938730000000000331e+01 2.709560000000000102e+01 -4.614619999999999891e+02
-5.675800000000000267e+01 2.750339999999999918e+01 -4.603799999999999955e+02
-5.627219999999999800e+01 2.941819999999999879e+01 -4.616700000000000159e+02
-6.103229999999999933e+01 3.122899999999999920e+01 -4.655670000000000073e+02
-1.264559999999999995e+01 -2.080750000000000099e+01 -4.605810000000000173e+02
-2.712290000000000134e+01 -1.648509999999999920e+01 -4.606970000000000027e+02
-3.242170000000000130e+01 -1.392259999999999920e+01 -4.636349999999999909e+02
-2.700969999999999871e+00 -9.035270000000000579e+00 -4.641560000000000059e+02
-4.909279999999999688e+01 -1.871480000000000032e+00 -4.618480000000000132e+02
-4.233360000000000234e+00 9.839150000000000063e+00 -4.664510000000000218e+02
-5.269319999999999737e+01 3.129670000000000130e+01 -4.632379999999999995e+02
-3.376169999999999760e+01 3.637270000000000181e+01 -4.654909999999999854e+02
-3.301870000000000260e+01 3.444010000000000105e+01 -4.590799999999999841e+02
-4.458630000000000315e+00 -1.701040000000000063e+01 -4.599309999999999832e+02
-3.053770000000000095e+00 -2.719230000000000036e+00 -4.617060000000000173e+02
-5.033350000000000080e+01 -2.885650000000000048e+00 -4.648389999999999986e+02
-3.984550000000000125e+01 -9.407080000000000553e+00 -4.630699999999999932e+02
-5.462610000000000099e+01 1.926979999999999915e+00 -4.651820000000000164e+02
-4.182979999999999698e+00 1.435580000000000034e+01 -4.605339999999999918e+02
-1.022530000000000072e+01 2.835369999999999990e+01 -4.710760000000000218e+02
-4.345040000000000013e+00 2.501470000000000082e-01 -4.663240000000000123e+02
-6.426739999999999675e+00 2.146259999999999835e+01 -4.695860000000000127e+02
-4.631940000000000168e+01 3.265550000000000352e+01 -4.641859999999999786e+02
-4.316949999999999932e+01 2.925819999999999865e+01 -4.613210000000000264e+02
-5.790670000000000073e+01 3.265840000000000032e+01 -4.652559999999999718e+02
-1.183830000000000027e+01 -2.114020000000000010e+01 -4.646899999999999977e+02
-2.889619999999999855e+00 -1.251140000000000008e+01 -4.621859999999999786e+02
-3.107909999999999950e+00 -1.110159999999999947e+01 -4.689730000000000132e+02
-3.800980000000000025e+00 -4.794990000000000308e+00 -4.667350000000000136e+02
-6.601940000000000452e+01 1.936100000000000065e+01 -4.682950000000000159e+02
-6.161070000000000135e+01 3.817719999999999914e+01 -4.713029999999999973e+02
-2.921180000000000021e+01 3.600600000000000023e+01 -4.622350000000000136e+02
-1.375430000000000064e+01 -2.139789999999999992e+01 -4.680790000000000077e+02
-2.757229999999999848e+01 -1.772149999999999892e+01 -4.714750000000000227e+02
-3.311599999999999966e+01 -1.584520000000000017e+01 -4.718969999999999914e+02
-5.873700000000000188e+01 8.280789999999999651e+00 -4.648890000000000100e+02
-6.907800000000000296e+01 2.363879999999999981e+01 -4.718460000000000036e+02
-1.827710000000000079e+01 3.429480000000000217e+01 -4.587939999999999827e+02
-5.084380000000000166e+01 3.462010000000000076e+01 -4.659440000000000168e+02
-2.516920000000000002e+01 3.621900000000000119e+01 -4.692029999999999745e+02
-1.228229999999999933e+01 2.986220000000000141e+01 -4.752559999999999718e+02
-3.279849999999999710e+01 3.779099999999999682e+01 -4.685710000000000264e+02
-5.193780000000000285e+01 4.135880000000000223e+01 -4.718260000000000218e+02
-4.133059999999999690e+01 3.534709999999999752e+01 -4.657620000000000005e+02
-4.847299999999999898e+01 -8.070130000000000692e+00 -4.703090000000000259e+02
-4.112460000000000093e+01 -1.062149999999999928e+01 -4.675369999999999777e+02
-3.383319999999999883e+00 -8.307299999999999685e+00 -4.703140000000000214e+02
-7.415399999999999991e+00 -1.921509999999999962e+01 -4.658910000000000196e+02
-5.869060000000000343e+01 2.528160000000000185e+00 -4.690319999999999823e+02
-6.300350000000000250e+01 2.090980000000000061e+00 -4.741200000000000045e+02
-8.384180000000000632e+00 2.565889999999999915e+01 -4.661240000000000236e+02
-6.372180000000000177e+01 2.796049999999999969e+01 -4.662119999999999891e+02
-6.871179999999999666e+01 3.291640000000000299e+01 -4.730559999999999832e+02
-4.389209999999999923e+01 3.918760000000000332e+01 -4.699529999999999745e+02
-4.330069999999999908e+01 4.177040000000000219e+01 -4.739630000000000223e+02
-4.583639999999999759e+01 -1.119759999999999955e+01 -4.730690000000000168e+02
-5.225229999999999819e+01 -4.857850000000000001e+00 -4.692780000000000200e+02
-6.624050000000000438e+00 -9.057370000000000143e-01 -4.733389999999999986e+02
-6.569499999999999318e+01 3.399730000000000274e+01 -4.705350000000000250e+02
-6.174130000000000251e+01 4.109120000000000061e+01 -4.744390000000000214e+02
-2.141410000000000124e+01 -2.060549999999999926e+01 -4.744200000000000159e+02
-1.848019999999999996e+01 -2.100230000000000175e+01 -4.707169999999999845e+02
-4.270900000000000141e+00 -1.545049999999999990e+01 -4.661299999999999955e+02
-1.696099999999999852e+01 -2.145840000000000103e+01 -4.726539999999999964e+02
-1.305669999999999931e+01 -2.141880000000000095e+01 -4.719259999999999877e+02
-1.434420000000000073e+01 -2.175039999999999907e+01 -4.761569999999999823e+02
-8.628880000000000550e+00 -1.961939999999999884e+01 -4.716689999999999827e+02
-7.982070000000000221e+00 -1.884720000000000084e+01 -4.778249999999999886e+02
-5.817069999999999652e+01 -2.604470000000000063e+00 -4.730459999999999923e+02
-5.285919999999999952e+00 -2.977380000000000138e+00 -4.703059999999999832e+02
-4.783000000000000362e+00 1.432489999999999952e+01 -4.698879999999999768e+02
-5.095869999999999678e+00 1.658070000000000022e+01 -4.771929999999999836e+02
-8.038610000000000255e+00 2.513289999999999935e+01 -4.759889999999999759e+02
-2.440559999999999974e+01 3.688069999999999737e+01 -4.764479999999999791e+02
-3.495620000000000260e+01 3.968659999999999854e+01 -4.723399999999999750e+02
-5.151959999999999695e+01 -1.149130000000000074e+01 -4.771789999999999736e+02
-3.357790000000000052e+00 -9.612389999999999546e+00 -4.778229999999999791e+02
-5.185060000000000002e+01 -7.409019999999999939e+00 -4.721770000000000209e+02
-3.256499999999999950e+00 -9.504509999999999792e+00 -4.745409999999999968e+02
-6.956739999999999924e+00 -1.709149999999999947e+00 -4.758290000000000077e+02
-6.704830000000000290e+00 -1.976839999999999931e+00 -4.743690000000000282e+02
-5.580029999999999824e+00 9.743520000000000181e+00 -4.767010000000000218e+02
-4.921579999999999622e+00 6.764800000000000146e+00 -4.701270000000000095e+02
-7.135089999999999932e+00 1.925869999999999971e+00 -4.769139999999999873e+02
-6.953270000000000550e+01 2.855150000000000077e+01 -4.726379999999999768e+02
-7.101930000000000121e+01 3.575509999999999877e+01 -4.793580000000000041e+02
-6.703910000000000480e+01 4.195239999999999725e+01 -4.812370000000000232e+02
-6.662990000000000634e+01 3.705010000000000048e+01 -4.741390000000000100e+02
-4.832810000000000272e+00 -5.731399999999999828e+00 -4.774820000000000277e+02
-7.676849999999999952e+00 -9.474319999999999617e-03 -4.798879999999999768e+02
-6.141689999999999827e+01 4.465019999999999811e+01 -4.798009999999999877e+02
-5.302879999999999683e+01 4.382639999999999958e+01 -4.745489999999999782e+02
-5.193849999999999767e+01 4.598109999999999786e+01 -4.779730000000000132e+02
-1.760839999999999961e+01 -2.202799999999999869e+01 -4.794320000000000164e+02
-4.997209999999999930e+00 -1.592910000000000004e+01 -4.746159999999999854e+02
