-4.990067125622728916e+00 4.531581067059989465e+01 -3.951357261471102333e+02
1.302936071227186465e+00 3.018867542689044114e+01 -4.415299295338331831e+02
5.020372229800639019e+00 2.855480593212479690e+01 -4.487206599764957105e+02
5.490417400791137048e+00 2.864597979164155817e+01 -4.509218892739721696e+02
1.702662718659251340e+00 2.159367745649318238e+01 -4.387829665773014085e+02
-2.920298310172078970e+00 3.876072671804605818e+01 -3.934526254744262701e+02
6.751074021927640167e+00 1.987668810546839637e+01 -4.515639526155790691e+02
-2.834892328936373218e+00 3.644175141202377688e+01 -3.913159571286547589e+02
-2.899448644817383069e+00 2.555272763134858494e+01 -4.291171469375830156e+02
-3.832922536560631199e-01 2.348770782275443736e+01 -4.384229509366681441e+02
3.184134495275820598e+00 2.977309432227929520e+01 -4.466160752414309627e+02
7.238946394870470868e+00 1.959215372369682484e+01 -4.503369466140004533e+02
-3.122171488261235028e-01 2.612532173556092019e+01 -4.008103506414152548e+02
-4.344448044819029064e+01 3.452629512127744249e+01 -4.018269061536153117e+02
-3.595383822006611751e+01 6.372304990095182120e+01 -3.907655222605102949e+02
-2.601771218727348156e+01 6.266716379746013388e+01 -3.914280964091441888e+02
-4.090328478812035939e+01 6.326674787096048647e+01 -3.935084869364130213e+02
6.321033408327185299e+00 2.820002749920005414e+01 -4.527445514881812301e+02
4.972624753186408952e+00 2.877645332222919805e+01 -4.515415614110460751e+02
-3.419776962566573264e+00 2.597799402987076789e+01 -4.333085291741527953e+02
-1.650304947780512288e+00 3.221158065268750192e+01 -4.369855790743590660e+02
5.182154465875838945e+00 2.154453521174334441e+01 -4.416851990038463214e+02
4.605824544498223538e+00 2.132607912909448444e+01 -4.406995681640837574e+02
-2.129980981568196707e+00 3.191295875071887167e+01 -4.421885693232750327e+02
5.625190323146536109e+00 2.123467482194563161e+01 -4.508531558907603198e+02
-5.494029594178350351e+00 3.473636061619125570e+01 -4.351601137927993364e+02
-5.993354720271287128e+00 3.452612096386904739e+01 -4.353369081592604175e+02
-1.807858109877161468e+01 3.783426962358981882e+01 -3.879390539903779995e+02
-4.753091140391895175e-01 2.887175540887588099e+01 -4.449450996629459496e+02
1.197929288973023088e+00 2.534741785102843181e+01 -4.459454991793655836e+02
7.728797242987096583e-01 3.132879920446036692e+01 -4.439954647215657815e+02
1.955670480841440018e+00 2.991691088105455165e+01 -4.429322795306925400e+02
5.731677182922697789e+00 2.755471355030295655e+01 -4.484334553807714201e+02
-4.185190387743198848e+00 2.725258533669907379e+01 -4.344043037141033778e+02
-4.362052500456915283e+00 2.678355156893730182e+01 -4.325410180615832587e+02
-3.755012482446075239e+01 4.408399378945823344e+01 -3.927479770280457956e+02
4.988587349872807053e+00 2.476891221639660046e+01 -4.524238897948378053e+02
-4.148959452065349218e+00 3.129897426762973112e+01 -4.390049545961259128e+02
-2.732735885225753947e+01 3.869485568840398315e+01 -3.904618714408018150e+02
-2.967691722493813344e+01 3.698438580286929067e+01 -3.916736730245554554e+02
-2.081725709460222618e+01 3.422037190431475295e+01 -3.901832695020780193e+02
-6.194432916277208712e+00 3.268692575413916046e+01 -4.355706112300983364e+02
-1.276256509030739394e+00 2.715256508189243334e+01 -3.949242947622118436e+02
5.962959273547559391e+00 2.275825357343517652e+01 -4.436619315991773647e+02
3.062528763630283368e+00 2.069165625576173539e+01 -4.401635352974996636e+02
4.449289897251338388e+00 2.313799613438132852e+01 -4.408673106949418070e+02
1.310890200836244412e+00 2.770955669675147703e+01 -4.475728346807746902e+02
-4.308875340144897592e+00 3.267078685082746148e+01 -3.895136145763398758e+02
5.393288238650424837e+00 2.011772908474608101e+01 -4.487522033872066345e+02
5.913920902132071333e+00 1.894149056863831859e+01 -4.476032116098976417e+02
6.296870765271898041e-01 2.719712963338152534e+01 -4.351616600661677126e+02
-4.533698815382608771e+00 2.633765183847930302e+01 -4.311415689773460258e+02
-7.192446507812236156e+00 2.501277985249698688e+01 -3.918992353472187915e+02
3.542045351976208067e+00 2.108349239332109093e+01 -4.394037277389278984e+02
-7.583500548519629403e-01 2.466488969261843067e+01 -4.402490487340940604e+02
3.357562945350463846e+00 2.716043207651782865e+01 -4.420116364579560013e+02
-3.815921287917258375e+00 2.582484912499319307e+01 -4.304433952748093475e+02
-3.697926556927449759e+00 2.598407104340044782e+01 -4.316023840530693292e+02
-2.915943570740675117e+00 3.270122199895827464e+01 -4.336162894030154575e+02
5.946834115197237480e+00 2.071838930410640600e+01 -4.428597800139247056e+02
-3.813879255708481253e+01 5.811936066657483480e+01 -3.905331893935146468e+02
-3.765493533479556021e+01 6.097421881386865294e+01 -3.901972857002941169e+02
-2.811248952377714261e+01 6.245023411199147034e+01 -3.896138547366540479e+02
1.014895850491478901e+00 2.291147030037052446e+01 -4.419586328857412809e+02
-6.576812496986935486e+00 4.640465683154989307e+01 -3.890699454579223016e+02
-7.608494531246153159e+00 4.857569804451544115e+01 -3.897810590705123559e+02
-5.084960312829809759e+00 2.810445036072992764e+01 -4.336092347122992123e+02
2.453997767787979178e+00 2.255393373393912881e+01 -4.453830361113809317e+02
4.178398734731678665e+00 2.078380652733252276e+01 -4.467837060558049416e+02
-2.262434713842460976e+00 2.643134642053762917e+01 -4.390629669921728464e+02
2.646474262864089710e-01 2.858788724180446650e+01 -4.357748449702729090e+02
-2.756860211643096248e-01 3.030002397383249857e+01 -4.368699003630032962e+02
1.432446382313971478e+00 2.224571717991495490e+01 -4.364867011728077273e+02
-4.960611492088022878e+00 4.249145489996487157e+01 -3.890894925784197653e+02
-6.942775418407351573e+00 3.183206345118823677e+01 -3.887220910643805496e+02
-3.644643958771276449e+00 3.384573818809367651e+01 -4.378617261550483022e+02
-3.146325922194645841e+01 6.493547169652782713e+01 -3.923277997777191217e+02
-3.235398843378982292e+01 6.392672214488304405e+01 -3.901726092459718984e+02
5.848506635234531181e+00 2.695259501224932563e+01 -4.539320509704814981e+02
-6.027773388089697981e+00 3.528039052302969480e+01 -4.345577706285772024e+02
1.073501604837947099e+00 3.059706325638764923e+01 -4.466033931558226300e+02
-4.825708564380277732e-01 3.199037865832152150e+01 -4.430789684212550696e+02
-1.419572502455881846e+00 3.234666845527900847e+01 -4.422754075793494053e+02
-1.043025687552064706e+00 3.242369557904748945e+01 -4.412543442714298862e+02
3.754606576167967447e+00 2.329449631446183133e+01 -4.395591528901857714e+02
2.270426453698517033e+00 2.815452549090112910e+01 -4.491180749757714352e+02
-3.209141817530790863e+00 3.251383995652665959e+01 -4.310919614697671136e+02
6.695041968268717447e+00 2.781946028118569814e+01 -4.516803006843954904e+02
-1.545697102758426533e-01 2.821942244846897196e+01 -4.341579934916720163e+02
-8.138510294265968170e-01 2.913078258541676036e+01 -4.334345182031151467e+02
-2.347394732019320074e+01 5.841176684877469683e+01 -3.881903594133951856e+02
5.691032204152583596e+00 1.880930728973138244e+01 -4.442161789079569303e+02
3.454372666560866501e-01 3.125145446725753473e+01 -4.451460098840789215e+02
-6.553622931489967662e+00 2.960176110557672402e+01 -4.332924381359180188e+02
-7.182829302452302223e+00 3.545523524854735342e+01 -4.346154979576663209e+02
-6.669281696158630091e+00 3.600815724024678843e+01 -4.342216598656608539e+02
1.033562492534858990e+00 2.381658618915903602e+01 -4.346229132075330881e+02
1.737016426270507008e+00 2.375945128208818602e+01 -4.358154073615770585e+02
-1.954528660720953992e+00 2.460139633571088069e+01 -4.325016358829439582e+02
-2.001086945926483907e+01 5.836973215240932689e+01 -3.900513063956594806e+02
-8.449285282291544519e+00 4.835418989193892259e+01 -3.881253270568391827e+02
6.772292482238457367e+00 2.452401260118210047e+01 -4.467716650115106063e+02
7.706510739094118989e-03 2.181580975683610291e+01 -4.026198514709629421e+02
-1.643094086943455778e+01 3.928748382054669008e+01 -3.872235458542152173e+02
-1.098141676928185539e+01 3.399113475350787894e+01 -3.882084091287422893e+02
-9.848354598689916806e-01 2.671590901575790511e+01 -4.309696001144966431e+02
-2.357755115161956461e+00 3.062146024931232802e+01 -4.309457952250135691e+02
-4.922123234531485814e+00 2.848333963537771751e+01 -4.346147201333602652e+02
3.305024705514978955e-01 1.748701507390144627e+01 -4.043056645700279432e+02
5.268616611002393313e+00 1.910435031770067482e+01 -4.455256521555678546e+02
2.329038756021829748e+00 3.035144926565339318e+01 -4.473673668891009356e+02
-4.944131380367068118e+00 2.908564078162103783e+01 -4.354994221662198015e+02
-4.430406385632859489e+00 2.812256139668048149e+01 -4.354713599363617504e+02
7.931329508481443469e+00 2.346169889312217904e+01 -4.481570878068683328e+02
-2.047690955302239768e+00 2.673597425706509512e+01 -4.286712279015502531e+02
-1.646877640805869181e+00 2.604681229327066205e+01 -4.298527002928868228e+02
5.928996200551237550e-01 2.933027827823260480e+01 -4.377670311302426285e+02
6.905284591349261092e-01 2.667644848908745203e+01 -4.459783498977337217e+02
-2.582368660241229907e+00 3.008546962786296675e+01 -4.416265243595727270e+02
-2.493966597173392419e+00 2.604481644524165063e+01 -4.278692877421254366e+02
-3.567103975514922087e+00 3.550842398990022275e+01 -3.897179688607324124e+02
2.070493741727627235e+00 2.179587495949523657e+01 -4.426019543265738321e+02
3.619118650940731374e-01 2.495578070232998158e+01 -4.333227197875655747e+02
4.208136784763047422e-01 3.035556122293677461e+01 -4.391585684350802126e+02
2.648254056775001253e+00 2.092686578556221377e+01 -4.414013347321553056e+02
3.013921721699106104e+00 2.108187401693324148e+01 -4.438777416622014016e+02
-2.373807895462683781e+00 2.663005086835790536e+01 -4.275763888026153836e+02
-2.356093622077664484e+00 2.760854009602004666e+01 -4.274762728391445421e+02
-6.424512029715056194e+00 3.087154496844683749e+01 -4.343317465719398456e+02
-6.541664809396180225e+00 3.153642982914822568e+01 -4.346379076892874878e+02
-1.145397766059163436e+00 2.383550617280496198e+01 -4.350109215165305727e+02
-5.158252892148055935e+00 3.084471066772527337e+01 -4.367248702602083767e+02
-1.354584106093488893e+00 2.953469332598855956e+01 -4.324602497914478931e+02
2.171063411575303026e-01 2.641879276424867484e+01 -4.335240013177674427e+02
6.237351901954738764e+00 2.437024312566676798e+01 -4.528139246829677518e+02
6.481365449633904596e+00 2.288047984478937735e+01 -4.521764091516655526e+02
-2.083714889407756399e+00 2.813805330730111010e+01 -4.288883425816987369e+02
-4.800047383968159553e-01 2.937171895087838180e+01 -4.347182639817415861e+02
-2.531727661502324533e+00 2.888577552894353317e+01 -4.276220687594176297e+02
-2.079599127846974316e+00 2.737015422430219047e+01 -4.285291166038319375e+02
-1.137351616839227475e+00 2.612832812171988905e+01 -4.306622181183448674e+02
-4.938005308063155852e-01 2.765750684350228994e+01 -4.443530369743672281e+02
3.035055163094354747e+00 2.867239312427315312e+01 -4.500534998256986796e+02
7.969658328847685880e+00 1.946051065330164143e+00 -3.753167909309754009e+02
8.139635234193715263e+00 1.534827819124413573e-01 -3.764772484482863319e+02
7.536967302309190764e+00 2.528867704077974565e+01 -4.492423519860153078e+02
-1.880613787008585946e-01 2.359664057280777172e+01 -4.335011206721259214e+02
-7.179239594806592351e-01 2.397447163228664735e+01 -4.326522265940683951e+02
-1.414470893073509483e+00 3.114937509399050697e+01 -4.435041554835978559e+02
-1.560207334099747545e+00 2.780152082594494090e+01 -4.302034222538726453e+02
7.750143541969704231e+00 1.846936916473330825e+01 -4.491023623647325849e+02
-6.170973820335169613e+00 3.006092753584380972e+01 -4.340348861391847208e+02
3.949993001871053178e+00 2.005137332752358148e+01 -4.415210328115740026e+02
3.136674707979175469e+00 2.244448712416134484e+01 -4.382557666266217211e+02
-2.029624482214030579e+00 2.548823907024715041e+01 -4.379793968992968871e+02
-1.975261022973754832e+00 2.482673857152604313e+01 -4.360529756924775597e+02
-5.840826101219945832e-01 3.048760350433383337e+01 -4.448248409958941352e+02
7.773805637189645346e+00 2.160425363359013673e+01 -4.487488776737728813e+02
8.273848578445369029e+00 2.152259303871514362e+01 -4.473425349892260101e+02
6.850555611747954465e+00 2.098620091475881466e+01 -4.512492710287616546e+02
-4.967808256217920437e+00 3.354644783464834745e+01 -4.373730364553697996e+02
-4.448764254755956493e+00 3.327375471408546304e+01 -4.382541015633080406e+02
-1.594555071875695340e+00 2.648792529126641071e+01 -4.408896097239310166e+02
-1.025765116834243873e+00 2.708924175194084683e+01 -4.428479094665191838e+02
6.916475978203188824e+00 2.294759950724015951e+01 -4.510197086749450932e+02
1.554181595052400944e+00 2.535614765103819934e+01 -4.359674695513388087e+02
-3.129281757992433466e+00 3.204553097720519617e+01 -4.408058320625320334e+02
7.551537045505148704e+00 2.126851682548436173e+01 -4.458546078068038128e+02
7.640777551347538221e+00 2.011576553364928799e+01 -4.455538723706322912e+02
5.054858098871220839e+00 2.487253882110369219e+01 -4.434265439073715243e+02
4.715270857790720527e+00 2.424286048200043453e+01 -4.421428907127732941e+02
7.016357725845598026e+00 1.812457752676772316e+01 -4.454624798780429273e+02
8.217908523482066130e+00 1.706542807487409874e+01 -4.480535045582636258e+02
4.251096164619950213e-01 2.818245205370355322e+01 -4.462603072046373995e+02
-3.119889385948878324e+00 3.263744004834806134e+01 -4.322825461789421979e+02
-4.797243399002560693e+00 3.445053483408639750e+01 -4.355033483993900632e+02
-5.222483004312327814e+00 3.021195839131455685e+01 -4.360630700301941829e+02
8.628997516267427059e+00 8.142165841777608826e-01 -3.762655448749507059e+02
-4.743709011849275292e+00 3.102471331838044577e+01 -4.377844178383570011e+02
-2.058221499358604767e+00 2.500757945904213031e+01 -4.312505528197982017e+02
8.503086306750107681e+00 1.973726029351621847e+01 -4.468897554259308436e+02
8.585821239303079722e+00 1.829699650040442549e+01 -4.468687844738160493e+02
6.851483033693859248e+00 2.624320348259427504e+01 -4.512008147902636779e+02
1.550804041122858523e+00 2.190841861650358169e+01 -4.408336257789062529e+02
-4.426058350328297308e+00 2.927139012346590974e+01 -4.370417584927985217e+02
4.155929370453542937e+00 2.938908152268700391e+01 -4.491791240773651452e+02
5.204984791074416250e+00 1.942007019293168213e+01 -4.426855459314378436e+02
5.375767690327701409e+00 2.000059366367910485e+01 -4.421844710408322499e+02
4.565091080977991211e+00 2.052403800773907605e+01 -4.409291851402433053e+02
3.321153940511842872e-01 2.395859051832194098e+01 -4.335310641945389420e+02
6.264339863479041703e+00 1.890683522606079237e+01 -4.439507442738744203e+02
7.113705946997429308e+00 2.681108883831403489e+01 -4.504642095898886964e+02
5.832191440035650487e+00 2.546811157885711907e+01 -4.539123780849546392e+02
3.518048478650819266e+00 2.885635802332063449e+01 -4.451311432172930722e+02
-8.075396287219994917e+00 6.308314603582700464e+00 -4.082841024548422979e+02
6.561505484694172274e+00 2.288687772893362649e+01 -4.449514833090345860e+02
-4.790532166544293702e+00 3.276299365026152088e+01 -4.380101284022968571e+02
-3.637694804179624875e+00 3.347513897470695809e+01 -4.317488571372529123e+02
-3.840427716726667384e+00 3.405325677909411297e+01 -4.304654672866274723e+02
3.573889345360328651e+00 2.475287255500994021e+01 -4.500285099275645280e+02
1.333786979449583354e+00 2.932523670150889217e+01 -4.398910379382519409e+02
-6.160487738563523719e-01 3.147644865507390222e+01 -4.384108920859587215e+02
3.087367162291003442e-02 2.464043806950848037e+01 -4.424251884844571805e+02
2.744268317834985815e-01 2.311977447814906128e+01 -4.398981855835991723e+02
2.177521819345012766e+00 2.878470470676641924e+01 -4.413215370818300585e+02
1.601768150063510587e+00 2.600458600733045245e+01 -4.472492359197627252e+02
2.573794908755916211e+00 2.653256615953524289e+01 -4.393453963103683577e+02
3.264744237524609627e+00 2.519191941428641002e+01 -4.397236426740892057e+02
2.062181869211738405e+00 2.591919168170142029e+01 -4.375453317908951476e+02
-1.775561910344158889e+00 2.921981931993166270e+01 -4.427638747342977581e+02
-2.258550947657759878e+00 3.090759542494645018e+01 -4.423142980785355007e+02
-1.192284826513027474e+00 3.001075893804912553e+01 -4.439794990218512680e+02
-3.385554803158124404e+00 2.776772317841632898e+01 -4.379546759561928866e+02
-2.961221015323738381e+00 2.835243400212935327e+01 -4.397129535747388331e+02
2.424325520375131493e+00 2.283662674879366961e+01 -4.370697810879932490e+02
2.336915003801705026e+00 2.422926968843672313e+01 -4.370913622665320304e+02
-2.718725551610392088e+00 2.918413337303189792e+01 -4.266248190759254726e+02
6.996746676132349130e+00 -2.580157161228280316e+00 -3.776794742474656914e+02
-2.342425945726130276e+00 3.168702331868437483e+01 -4.330257228378877699e+02
-1.254876024586211614e+00 3.102408555269681045e+01 -4.352749187895774980e+02
-1.802033501469162857e+00 3.135869705333716340e+01 -4.341650908096558510e+02
-1.448369390043865446e+00 3.043059182641382776e+01 -4.335730229933003557e+02
-5.763213838277636114e+00 2.809537492911800527e+01 -4.326480071325569838e+02
-5.072455894944466692e+00 2.736181162953223378e+01 -4.324025274379131929e+02
-5.359800539033501288e+00 2.712093756033593905e+01 -4.317625872855933835e+02
-3.887447825099848764e+00 3.345658069586080785e+01 -4.388412174856695174e+02
-3.845754521996401776e-01 2.518016402944414622e+01 -4.321120387932758149e+02
-6.535679227772698496e+00 3.217267895391696442e+01 -4.349607050286176104e+02
3.161066073016439049e+00 2.989059375484029601e+01 -4.485711318696268677e+02
-7.508706372630996384e+00 3.420557904970387142e+01 -4.346115808764529334e+02
-2.341330221183536953e+00 2.904289909337023090e+01 -4.287711653964542506e+02
-5.978476714364783007e+00 3.585863283966556025e+01 -4.338010600045996057e+02
-5.498656638985066181e+00 3.526803127673215243e+01 -4.341260776412194105e+02
-1.602420875757567309e+00 2.718981360035432715e+01 -4.298099190854145490e+02
-4.023111737057683435e+00 3.406588620238392195e+01 -4.364857873240245567e+02
-4.481550520503927437e+00 3.414186260086842850e+01 -4.368339692599787440e+02
-5.965311469641342290e-01 3.143929641511745743e+01 -4.442329403950862456e+02
-1.431261875103864156e+00 2.895965009461961159e+01 -4.315152343381782316e+02
-1.242330250929729019e+01 8.190248784527769388e+00 -4.071281375509482814e+02
-2.048651147266955075e+00 2.971493377001250735e+01 -4.306527284732734984e+02
-4.444736418281213908e+00 3.381394504801065182e+01 -4.377433853338294512e+02
3.072803114399079494e+00 2.948480747039386074e+01 -4.494829858330875823e+02
4.117811562715114615e-01 2.272331713763366423e+01 -4.356214002025651553e+02
7.600671293508888260e-01 2.306563965702831354e+01 -4.348177177559680331e+02
6.828625509483474687e+00 2.107009534044031440e+01 -4.444531159243741172e+02
-2.701761862610017673e+01 5.785245002324081298e+01 -3.874555092417580795e+02
-2.142549525216395168e+01 4.656735451218422384e+01 -3.867637587866224180e+02
-2.699534509144315031e+00 2.999391576838878848e+01 -4.283006041709091960e+02
-2.443495569642176068e+00 2.998600753734990221e+01 -4.296162209011592950e+02
-2.599867826469630661e+00 3.329743281210763683e+01 -4.385699892301277600e+02
-2.382605235955124634e+00 3.300043398381389892e+01 -4.368972475713683821e+02
-2.989789410917441881e+00 3.083118805790344297e+01 -4.278242708204305700e+02
-3.295590008110971070e+01 5.251886367189121785e+01 -3.889385173992913565e+02
-5.130319930467959644e+00 3.413077793535615712e+01 -4.364075413206367671e+02
-9.373775477362780606e+00 3.920650478950005891e+01 -3.871339864390835714e+02
1.588111258342190801e+00 2.291999238772958947e+01 -4.358402154503325505e+02
-2.205197748351277465e+00 3.219024252910780604e+01 -4.348087896922375535e+02
-5.728611704048884867e+00 3.290434995682933561e+01 -4.363369962724427751e+02
-6.849609338299117667e+00 4.508916150148217383e+01 -3.877968659088958816e+02
-4.327359310086165323e+01 6.963322852850977540e+01 -4.066008679585406185e+02
-8.846956069456284322e-01 2.379037219357439170e+01 -4.334242728722950915e+02
-1.169026978287484919e+00 2.794118240040586443e+01 -4.312238814080225779e+02
-3.801797163315552286e-01 2.643642448019271285e+01 -4.322072893949929835e+02
-1.550463288520889327e+00 2.413032563355789861e+01 -4.336544352890680898e+02
4.468757638342664151e+00 1.966720473049015894e+01 -4.444324293061789035e+02
-1.672730675514369381e+00 2.669104646616255394e+01 -4.295882595644439448e+02
-2.195244119627096424e+00 2.613067445278978340e+01 -4.287290143349429741e+02
-2.494217072561236925e+00 2.573088957122900311e+01 -4.287986928200928105e+02
-4.489441091976168252e+01 6.550957915762242578e+01 -3.998809005272095192e+02
-3.128846352140973952e+00 2.539856690986385601e+01 -4.281913075981278780e+02
-2.025082297851461099e+00 3.293462374988685326e+01 -4.405387674119828603e+02
4.309816931484840907e+00 2.719231040804277910e+01 -4.443720427910587887e+02
5.261394464507255009e+00 2.687322146038763648e+01 -4.462099702543957847e+02
1.894182482436887582e+00 3.054828259624973086e+01 -4.447684653270816852e+02
-5.472916257867798784e+00 3.190388384215449236e+01 -4.366076970502011818e+02
-5.192103886370570187e+00 3.239475999369163617e+01 -4.372788317912098819e+02
-3.074534371466721261e+00 2.586409589521704433e+01 -4.349693165437607831e+02
-4.094586538092674921e+00 3.256716798680407265e+01 -4.392384687780032095e+02
-2.083509410985725285e+00 3.078937687654395106e+01 -4.321104087050197222e+02
-2.705820937687942962e+00 3.165430894789376381e+01 -4.315707400106560954e+02
-2.593740844998533746e+00 2.832944107818894253e+01 -4.262783231574973115e+02
-4.254138239361599183e+00 3.450252585222805379e+01 -4.323023761764988535e+02
5.979658529271199896e+00 2.364069191944422954e+01 -4.534546746039470690e+02
-5.463953782110129609e+00 2.918053492758484779e+01 -4.343240090244310068e+02
-5.782782076542300587e+00 3.027264140131462256e+01 -4.348548227753634592e+02
-5.806002406793834503e+00 2.898572500896077742e+01 -4.335375825425758194e+02
-3.952247569140311612e+00 3.398130113764916871e+01 -4.351330455130516270e+02
-1.842386151683116147e+00 3.000544952836461476e+01 -4.316173839481946288e+02
-1.263518115152722832e+00 2.444706847442061814e+01 -4.318293321769900786e+02
-5.723315652263678555e-01 2.434698649276377935e+01 -4.323275139720701077e+02
-1.030688352163305010e+00 2.517018213674608518e+01 -4.311047346714979085e+02
-2.775974729785296802e+00 2.528107185612542196e+01 -4.326852577278877447e+02
-2.877205486850716198e+01 5.363983826830136081e+01 -3.873698730384145392e+02
-7.090344048402223986e-01 8.508566577982868750e+00 -4.006447780962945444e+02
-1.360171355429482087e+00 9.396887370328583344e+00 -4.019126039734737788e+02
-9.231176213444214351e-01 8.463221427594852742e+00 -4.020521540615211507e+02
-2.417496026657402197e+01 1.491086142770472023e+01 -4.039983973518267817e+02
7.947456519691431076e+00 -2.252261305554813742e+00 -3.778443700003495564e+02
-4.534277998673032783e+01 3.110193172633804082e+01 -4.052684003314182064e+02
-1.070985323454917815e+00 2.743908361988319200e+01 -4.059529941814485596e+02
-4.553987827182456982e+01 3.508897793822666955e+01 -4.036594329134777581e+02
-4.911487082231651868e+01 5.224295550900826868e+01 -4.026377932788515750e+02
-5.273056853322411541e+01 5.814338922611655391e+01 -4.087170343720983965e+02
-1.665944647189645167e+01 6.270159808483263930e+01 -4.080822247953365149e+02
-4.906209431168165480e+01 6.753600896772881867e+01 -4.078108478190589494e+02
-1.524897444593142382e+01 6.049962520838585789e+01 -4.041697715962184816e+02
-2.187563279849845088e+01 6.525120338280380849e+01 -4.066468607635036960e+02
-4.269868091044219227e+01 6.803512033027922712e+01 -4.017151099393075242e+02
-3.887369971018944170e+01 6.880684374523035274e+01 -4.031473778630053744e+02
-1.908540112640721986e+01 6.030826464001748377e+00 -4.097805043409888981e+02
-3.819687986057119389e+01 2.324689000678190354e+01 -4.054209256564763564e+02
8.105467077198086345e-02 1.301148164812581065e+01 -4.075555232800139720e+02
-4.755846568759137938e+01 2.688707059395373733e+01 -4.084135000005921938e+02
-5.368713780621308018e+01 4.245211208500408873e+01 -4.089029652418662977e+02
-1.921226911259117998e+01 6.468157610257047452e+01 -4.097933909555200671e+02
-2.765752937804566258e+01 6.757834143391120563e+01 -4.078881279131412612e+02
-3.493800403743619398e+01 6.904819593918759324e+01 -4.073534710313154505e+02
-3.133190868514220995e+01 6.793891604705349607e+01 -4.047367369277555440e+02
8.890046431484917022e-01 2.279251991972063518e+00 -3.988576175296439601e+02
1.957292405475739905e+00 1.880756264780412135e+00 -3.972800955532593434e+02
-2.601888318785571741e+01 1.163588959570330061e+01 -4.070561493257566781e+02
-2.979542558644637396e+01 8.111050691023061532e+00 -4.109703626857705672e+02
1.084170248653977886e+01 -1.975175611829834477e+00 -3.787458148322106695e+02
1.038624908350085541e+01 -2.988538777024008830e+00 -3.791579718126326952e+02
1.170134239573672552e+01 -3.009588507975453631e+00 -3.796622679392621649e+02
-3.374230398357718030e+01 1.360481607059843157e+01 -4.085500029908873785e+02
3.292097253339985929e+00 3.949247050666643943e+00 -3.950886142849483917e+02
-4.283101433265921543e+01 1.984256385418440161e+01 -4.093090361885697348e+02
-4.843501394827728035e+01 2.263000488005679500e+01 -4.107095067012752452e+02
1.338897748407156252e-01 2.126962304914481905e+01 -4.063285373993295480e+02
-5.140307596992754213e+01 2.706773769939504604e+01 -4.108448346867843952e+02
-5.138861363190532927e+01 3.856844697824870849e+01 -4.074259515425309246e+02
-5.002480066300326911e+01 4.168976353971774529e+01 -4.051146328806712518e+02
-5.591766529484692683e+01 4.345057126719844831e+01 -4.113097653360329105e+02
-5.569216107482349543e+01 4.906970841358619140e+01 -4.113343733357123710e+02
-5.234941738195002614e+01 5.468514783942774926e+01 -4.074788406815944768e+02
-1.458966317610150654e+01 6.079249021518249663e+01 -4.090466959221928391e+02
-3.145099428104155947e+01 6.854398025577224018e+01 -4.092016686280648514e+02
-3.897065220372140004e+01 6.986545548687115570e+01 -4.096652197255471037e+02
-1.200770584673429475e+01 3.183120333950958170e+00 -4.133537942327753854e+02
-6.144624458221993990e+00 5.827773521030590764e+00 -4.073718099741795413e+02
8.920800773092938840e+00 -3.475283208803478630e+00 -3.789212651072647873e+02
-2.747444286875628450e+01 5.465064194118367524e+00 -4.123593179692391573e+02
-4.232866035194170706e+00 5.039390836919237948e+00 -4.099361516863041288e+02
-3.775518967277979243e+01 1.337604771336614640e+01 -4.105192215147476418e+02
-5.501688368979554866e+01 3.613602209802010634e+01 -4.114205887486173197e+02
-5.219080945101811864e+01 4.957957057507733367e+01 -4.068251451223401318e+02
-7.802829040437627484e+00 4.987109915509066127e+01 -4.109462230357053727e+02
-4.038815556155194741e+01 6.986008800999199764e+01 -4.082429484905352979e+02
-3.978069859699756705e+01 1.208573212207466874e+01 -4.128465022204703132e+02
-3.448168012747041189e+01 8.254312629966282344e+00 -4.132293050643052084e+02
-6.757485640158169993e+00 1.085705139637848404e+01 -4.001142559984338050e+02
-4.868892394884095154e+01 2.022266360694562692e+01 -4.122666895701265730e+02
-5.268079012118370485e+01 3.129803976357477069e+01 -4.105881922245077931e+02
-3.015309583429841567e+00 3.415113874044784126e+01 -4.130773065083940310e+02
-1.480352023818384666e+01 6.145557847835630838e+01 -4.195231058021275317e+02
-1.778322022793463830e+01 6.413846691435294645e+01 -4.143347021102483154e+02
-2.506630520061790435e+01 6.712696529554580138e+01 -4.102048571664134329e+02
-3.163837606064522490e+01 6.882992337653936943e+01 -4.122266392923519334e+02
-4.517779500175785046e+01 1.749979520133112487e+01 -4.118423781012585323e+02
5.184365575733040910e-01 1.182695991514089684e+01 -4.108828414662128807e+02
-5.567080127932380407e+01 3.166229550440596086e+01 -4.132771774966475959e+02
-5.739158074351880146e+01 4.761678054400331206e+01 -4.137472271737718188e+02
-1.206179588579056627e+01 5.780211277262659308e+01 -4.198638323641470151e+02
-5.102269368129260130e+01 6.562779141064751798e+01 -4.092435138051141053e+02
-2.172829046786666396e+01 6.606305360108336799e+01 -4.120642385212714771e+02
-4.791557797097277671e+01 7.034383221274522668e+01 -4.140023334007676112e+02
-4.480229639763111749e+01 6.998102304872369928e+01 -4.094046544900262461e+02
-2.350016604502583561e+01 4.669406559954556002e+00 -4.118199193550262294e+02
-2.696334898843540628e+01 2.421471947071629938e+00 -4.157728150005581256e+02
3.737996741260195321e+00 6.166779926069487772e-01 -3.822867070024759073e+02
4.598985320806112220e+00 -8.027593689726368886e-01 -3.817710461515400766e+02
-3.626308223233660755e+01 7.216778180249277419e+00 -4.150667215937592687e+02
-1.268355402023113587e+00 8.082883601067223367e+00 -4.169526381358658682e+02
-4.195381678698070971e+01 7.035122952003908381e+01 -4.123401931554655562e+02
-4.378912286352923644e+01 7.055352905741311531e+01 -4.147344075640730239e+02
-1.243954374251699946e+01 1.302477040352836291e+00 -4.190248135094116151e+02
-5.326882315519282685e+01 2.539546655155832156e+01 -4.133814357487785855e+02
-5.743372327582078896e+01 3.989632041388424000e+01 -4.137149632891350279e+02
-5.903060025072739592e+01 5.185086524424409049e+01 -4.181130629011890392e+02
-4.833365720205472371e+01 6.930819650748499328e+01 -4.098387055858273698e+02
-4.988816278628274148e+01 7.006564550263330204e+01 -4.145875091168105655e+02
-5.225166287620678673e+01 7.013500555835283023e+01 -4.192847783810624946e+02
-3.962323712670868758e+01 7.016138292887615080e+01 -4.159391358033027473e+02
-1.630262360839742630e+00 6.724483785309306683e+00 -4.134549305331137248e+02
2.874251033874228312e-01 9.729220420302700845e+00 -4.136914492389286693e+02
-3.571264213288316114e+01 6.954276940654405337e+01 -4.141478826316927666e+02
-2.161922392340312626e+01 -5.671748006008898724e-01 -4.186300341005689347e+02
-2.079524217087948301e+01 1.870983949667942792e+00 -4.147466462592214498e+02
-4.646830123883199803e+01 1.502987149312903625e+01 -4.144807693402249811e+02
-5.111060403585861422e+01 1.827135622720384589e+01 -4.157333137466953872e+02
-4.934815569977725147e+01 1.325685596315929260e+01 -4.180356880284761019e+02
-7.992767110816165754e-01 1.723846221510488874e+01 -4.176769103424256286e+02
-5.842515037014608481e+01 3.250622092270574370e+01 -4.163033369341088701e+02
-5.954445221755538142e+01 3.059277651671593290e+01 -4.184281883143768823e+02
-5.600685424196998952e+01 2.545935403284405751e+01 -4.161115107344331818e+02
-4.968896336411278369e+00 4.106307152297650731e+01 -4.154556632384886825e+02
-5.647706753162108129e+01 5.334160405496842827e+01 -4.140001763770292769e+02
-5.249154763472446916e+01 6.770661623116913574e+01 -4.145228734386605538e+02
-2.626754269352131033e+01 6.798770216395857346e+01 -4.141158233590454074e+02
-3.052741904053846156e+01 6.888555721509125362e+01 -4.157112097425392108e+02
-4.742627479742458974e+01 7.101952031308648827e+01 -4.192450636857764721e+02
-3.389539053575221317e+01 6.973047070990220675e+01 -4.197644252711486956e+02
-3.605989218740272406e+01 3.387880497293588089e+00 -4.187520502246862293e+02
-3.632275458250465761e+01 5.715530138668054150e+00 -4.169051667366088054e+02
-4.638833682140970893e+01 1.273082223894023635e+01 -4.166458477336899477e+02
-5.542183801973428103e+01 1.967761269839803973e+01 -4.187538573386618737e+02
-5.403790513997375200e+01 5.897691500738968529e+01 -4.115311219291889415e+02
-1.655993513111215165e+01 5.484547200193303773e-01 -4.178457743350492706e+02
4.410069488073966149e+00 5.330479569109704663e+00 -3.888995992327040767e+02
-4.436549050661716365e+01 9.310489547888305850e+00 -4.183680754875992420e+02
-4.244778633071369711e+01 7.515905947781037710e+00 -4.191598831745609459e+02
-8.767770360878927249e+00 5.167484063019148266e+01 -4.188485290108227446e+02
-4.104209989755949550e+01 7.057046200373086720e+01 -4.194833485092968886e+02
-1.560294902641026660e+01 -9.393095388773577969e-01 -4.214980329251235958e+02
-3.598597073930734780e+01 7.452161768153411359e-01 -4.217171530203052043e+02
-5.035444641587401549e+01 5.637510887408322624e+00 -4.236697773764951762e+02
-9.622530574563755934e+00 3.329450617705806970e+00 -4.221526037166269703e+02
-3.924605692436296778e+01 3.794511172956698264e+00 -4.201841110151133876e+02
-4.775785010225713734e+01 9.710685905048347166e+00 -4.198059740807440221e+02
-5.649709504557453243e+01 1.136409551085085923e+01 -4.242337839990782982e+02
-5.596047143407058400e+01 1.666943938185892904e+01 -4.208520954679700594e+02
-4.313904852291952086e-01 1.307495245419908869e+01 -4.170562586207258278e+02
-2.110989434137117815e+00 1.581048417582624666e+01 -4.211126056426836044e+02
-1.323350867492779415e+00 2.136187546419657579e+01 -4.185191842167914160e+02
-6.347115778603996006e+01 2.785371985464412248e+01 -4.246158919003966048e+02
-6.367456866748403144e+01 3.931657823790334305e+01 -4.245756968385041432e+02
-5.992312578650370369e+01 3.890025466812066668e+01 -4.175630357412902640e+02
-5.522407148498050589e+01 6.459334649714058685e+01 -4.177226109397464597e+02
-5.702618762956255694e+01 6.706984764967747026e+01 -4.244255185661749010e+02
-2.888180392243203798e+01 6.902395371620036713e+01 -4.196136809847881182e+02
-2.352050919074929780e+01 6.732602986453092342e+01 -4.192082738926141587e+02
-2.090099905274815129e+01 6.634804982622823388e+01 -4.210705864915056509e+02
-3.747896277441209634e+01 7.016514859091606127e+01 -4.207467602417788157e+02
-2.993631890515309735e+01 6.924443772897303973e+01 -4.208040027906364458e+02
-4.860663871811301107e+01 7.122051477149761922e+01 -4.214218989362467482e+02
-4.442844416315724487e+01 7.090288844957862580e+01 -4.209495459077360806e+02
-3.132176272835011588e+01 -4.109925046600323206e+00 -4.256937192585498337e+02
-2.766996562241320490e+01 8.200442050403036753e-02 -4.190148444985524634e+02
-5.706469049646241132e+01 2.351725325390291843e+01 -4.183752257902162341e+02
-6.315728019441516494e+01 4.607630745883461998e+01 -4.245911696290015129e+02
-5.991850330222778354e+01 4.574292929077770253e+01 -4.179795526620757187e+02
-5.467666112579452431e+01 6.938248814955638011e+01 -4.223612485037031092e+02
-5.030929384221183653e+01 7.077278989824009159e+01 -4.194788521381408941e+02
-2.474461969454602794e+01 -2.389289820145090726e+00 -4.215793172639603199e+02
-1.793396372315274689e+01 -5.632932105478833940e+00 -4.283625859270240426e+02
-4.351170588657648608e+01 4.290119199182197973e-01 -4.246050317255486561e+02
-5.186432678257117956e+00 6.420595456258117117e+00 -4.201978542701106107e+02
-5.166711000820436439e+00 1.090422246294360242e+01 -4.232650274258323293e+02
-2.186846774270973182e+00 1.894644497399262306e+01 -4.219383606452440176e+02
-2.628784263077191596e+00 2.212127000343372885e+01 -4.233127585847412320e+02
-1.202153310198029246e+01 5.773539320452756129e+01 -4.258997659939075788e+02
-1.743322983478622845e+01 6.403067981431276223e+01 -4.192847818018839234e+02
-2.435593331842837728e+01 6.750883109403365268e+01 -4.241589238024394604e+02
-3.208115514592979167e+01 6.924327206377306254e+01 -4.261447822614389906e+02
-1.932286175320262700e+01 -2.900198623669309583e+00 -4.229555047761959372e+02
-8.093468723294469314e+00 9.052605641461086705e+00 -4.273503437123143840e+02
-8.105473637807730114e+00 5.476661585077764016e+00 -4.228413506183215986e+02
-6.164454814542470018e+01 2.300022558550423213e+01 -4.237064283543583088e+02
-6.333799764885025496e+01 1.711585132963999456e+01 -4.285011187911811703e+02
-6.523290289728451796e+01 3.037674797828116269e+01 -4.281934096110485939e+02
-6.305540965504166451e+01 5.198181695796573365e+01 -4.272529131559697930e+02
-5.983004921820568711e+01 6.787915906285839185e+01 -4.329137287047944938e+02
-1.854667964845224049e+01 6.470775546985537119e+01 -4.250213916352422530e+02
-2.174647011127233043e+01 6.631598946096028158e+01 -4.266620155671650423e+02
-4.623037749901912719e+01 7.115179213033472649e+01 -4.252826618612764946e+02
-5.325290744523438491e+01 7.096884992866191055e+01 -4.245652063814794701e+02
-1.323611357395700949e+01 -5.880885682314540563e-03 -4.230196216119850305e+02
-1.466205588367208712e+01 -5.232384605969179425e+00 -4.304197052470096878e+02
-5.563925885840043151e+01 6.412471971889365463e+00 -4.264216234261603518e+02
-6.058859455959187557e+01 1.506621976562859722e+01 -4.259058564685673218e+02
-6.974908756804341969e+00 1.149963636988478477e+01 -4.258736094711235296e+02
-5.655169465731191281e+00 1.490459725794436174e+01 -4.253301334298109282e+02
-7.107638406006365983e+00 1.674715064226328920e+01 -4.282776194148167974e+02
-5.406592886687549893e+00 1.891459976606049409e+01 -4.268661895754089528e+02
-6.366306034217392096e+01 3.325398152798117479e+01 -4.244335613151797588e+02
-6.439843974548311678e+01 4.486656404636025997e+01 -4.275107248894276495e+02
-6.151736993334548487e+01 5.454525286731815470e+01 -4.248029589013936516e+02
-5.954944941556009042e+01 5.743012988074634251e+01 -4.226318931844041344e+02
-5.890869233144105976e+01 7.033559819506061217e+01 -4.347284856973480487e+02
-4.165161095949404313e+01 7.058475683910398857e+01 -4.256817889883568000e+02
-2.328323383205362873e+01 -4.774922934339675074e+00 -4.251716354391525101e+02
-4.542309205628529156e+01 -1.675167906900216552e+00 -4.274765031727152405e+02
-6.535580377395108087e+01 2.291514275550903079e+01 -4.291197935076916679e+02
-3.210690664185496956e+01 6.919378897105652015e+01 -4.282205297773866732e+02
-4.251427916491690695e+01 7.070766038579078838e+01 -4.276674727540275285e+02
-5.060885181273572897e+01 7.146989631983568358e+01 -4.254966397719149995e+02
-3.839616567795429347e+01 -3.534368203944869613e+00 -4.277114854023935777e+02
-4.532315047287848842e+01 -2.499821504954568674e+00 -4.292693549594123965e+02
-5.003513664351820722e+01 1.733242657134391740e+00 -4.267923421519217300e+02
-1.146936207575586231e+01 1.008987344427311417e+00 -4.261956724181195000e+02
-6.469519345613861105e+00 4.531349052699084012e+01 -4.162301208372605288e+02
-8.911806909953561728e+00 5.197781042013903630e+01 -4.295346202835858662e+02
-9.912267015854107299e+00 5.368719711183251064e+01 -4.242276697847138962e+02
-1.574555815333307862e+01 6.235081968201973268e+01 -4.261948288450425366e+02
-5.724570926125065995e+01 5.445003530410009951e+00 -4.315853240327741673e+02
-6.051043702522125756e+01 1.081680157458244018e+01 -4.291835928667397297e+02
-8.756233639337585473e+00 1.220695132800706695e+01 -4.299700326985340553e+02
-8.498655366325801097e+00 1.878552132294624144e+01 -4.305666527512261155e+02
-6.572200011420393650e+01 2.372492691239772356e+01 -4.306408820564277562e+02
-6.501363176996947857e+01 3.901679227192499866e+01 -4.285272395008108219e+02
-1.168797816816477386e+01 5.691976206975347452e+01 -4.303723171971006991e+02
-1.831879404942824507e+01 6.411318440219322667e+01 -4.299386816782968594e+02
-2.432568239723392978e+01 6.697129843642930780e+01 -4.301821677768738823e+02
-3.176568566887421241e+01 -5.761444846903255090e+00 -4.290112917800713603e+02
-2.533093785905055029e+01 -7.935855535604940947e+00 -4.347718343330740254e+02
-2.269514903536990857e+01 -6.638006930108292458e+00 -4.290301767775504800e+02
-3.765490790046894176e+01 -4.945570716040058379e+00 -4.306765939932681704e+02
-5.798344852613227118e+01 6.960269507198651340e+00 -4.286224823674787103e+02
-6.551382025498257633e+01 2.935620742873971167e+01 -4.307967780642981097e+02
-6.557056349184585997e+01 4.160463962554970863e+01 -4.316121475597327617e+02
-6.527401565695282670e+01 5.068459395120891031e+01 -4.344750993019288785e+02
-6.386289065694353440e+01 5.685353146120372969e+01 -4.334250269593986786e+02
-2.598684272954345786e+01 6.776941390863602521e+01 -4.278146718576254557e+02
-5.544410220528366295e+01 7.089321168683488850e+01 -4.282801271520606861e+02
-4.251383422951781910e+01 7.080271970383350322e+01 -4.296252797291927550e+02
-3.318144597219377800e+01 6.925595418894508271e+01 -4.309552379632077646e+02
-4.973235916150755287e+01 7.174599001459914405e+01 -4.284862820146465765e+02
-5.274046887711480025e+01 7.175369671283800699e+01 -4.303004730568936793e+02
-1.305009266915850752e+01 -6.270543982963277863e+00 -4.330598097963935516e+02
-1.313433692293848765e+01 -3.989204638987677853e+00 -4.312989885426464411e+02
-4.900565622095683693e+01 3.652892724606150721e-03 -4.318048341101423375e+02
-5.313133107703554714e+01 2.270484130078705753e+00 -4.293505412219954565e+02
-9.546235688902518390e+00 1.116127718035935956e+01 -4.345582072875744757e+02
-1.501497399440164493e+01 6.125264964481799268e+01 -4.295642830568793329e+02
-1.738248758998901167e+01 6.314829850111330245e+01 -4.313294994128348208e+02
-4.203932068424373369e+01 -4.244539123761889243e+00 -4.314646693034075611e+02
-1.031576565040357352e+01 2.614308963197305768e+00 -4.328852720531901355e+02
-1.025023023081166684e+01 4.794012129888318263e+00 -4.308027687154611840e+02
-9.244268744601267684e+00 1.285823346263473610e+01 -4.323018423619624286e+02
-1.004130874582986443e+01 2.053461000532919911e+01 -4.333196919920861205e+02
-6.516178530082873976e+01 2.572345548199201914e+01 -4.328292668085313721e+02
-6.320938317376601390e+00 4.530952834790286232e+01 -4.288038519111286178e+02
-1.242264022501687748e+01 5.768138577128462430e+01 -4.314242436794762625e+02
-3.039976268446487140e+01 6.858399134410194620e+01 -4.320441442879659348e+02
-4.330008202277105056e+01 7.092771944383066796e+01 -4.312921149215446235e+02
-4.265321972988280663e+01 7.075416556597711804e+01 -4.335140126843093640e+02
-4.833182335302811339e+01 7.175800360629108354e+01 -4.323298276529827149e+02
-5.500719219959217554e+01 3.239066526764459830e+00 -4.311690050603132249e+02
-9.604943966866914096e+00 9.166039316091019629e+00 -4.369242460859628636e+02
-6.181404620367635516e+01 1.345418921010150903e+01 -4.326777098917578428e+02
-6.045088650642918537e+01 9.941109837095064350e+00 -4.314331370474186542e+02
-6.365622911825803953e+01 1.644714102198442163e+01 -4.313836312527818677e+02
-6.381943534876383239e+01 1.925960013720195718e+01 -4.328694287243691292e+02
-1.071418866791810487e+01 1.694599577100974130e+01 -4.363098116934557993e+02
-1.245435894140542921e+01 2.413144410662317085e+01 -4.359732737433781722e+02
-1.465766360688895809e+01 2.856562880482620770e+01 -4.379193740425320698e+02
-1.199286375193614695e+01 2.941502382768152302e+01 -4.348283315045668473e+02
-1.697626493192550257e+01 3.505532405609494617e+01 -4.366302698019591162e+02
-9.750884773797187322e+00 4.795478932225998392e+01 -4.357875950116691683e+02
-8.034216896596333868e+00 4.886956086897932749e+01 -4.315278541524510842e+02
-6.230457419789641449e+01 6.103157099341756009e+01 -4.328144332266019205e+02
-1.051041966458958221e+01 5.366139160497487381e+01 -4.321959087805439026e+02
-1.329080837048265984e+01 5.705053500647728981e+01 -4.339232872539561754e+02
-1.700395482599639507e+01 6.149274058358767547e+01 -4.335451033205216049e+02
-2.085733345188038967e+01 6.528282655687775105e+01 -4.317752804359861329e+02
-2.371167709150800107e+01 6.574772794558435862e+01 -4.335935822016400607e+02
-3.153957754829579230e+01 6.842781377929684083e+01 -4.337186935611743479e+02
-3.506526822726711856e+01 6.880593489897096049e+01 -4.354471208102929154e+02
-3.550002090086015016e+01 6.952733180004645419e+01 -4.328828935334693142e+02
-4.835600328364917289e+01 7.170824116493197664e+01 -4.351217612228332996e+02
-5.146489285379252721e+01 7.199645678554662709e+01 -4.345332857010069461e+02
-1.312652363540853351e+01 -7.688742288838999350e+00 -4.345591479779609472e+02
-1.748944506532530951e+01 -9.272875692005136727e+00 -4.344438598456097225e+02
-4.382688911628729755e+01 -2.122730216109680157e+00 -4.335102585407707352e+02
-4.057151470650156000e+01 -4.366262118487926003e+00 -4.326085485197761500e+02
-3.359127117918428951e+01 -5.461877296540264659e+00 -4.340923463954754880e+02
-4.015523414877568342e+01 -7.749700830074193192e-01 -4.357463388520841363e+02
-1.034648138406092954e+01 5.482415982628066065e-01 -4.351337136777664227e+02
-5.448705958692064399e+01 6.094842672802883499e+00 -4.335715977123273888e+02
-4.915555635075251928e+01 1.185948202743363877e+00 -4.331978093953210305e+02
-5.909387777070853787e+01 8.889099527088996311e+00 -4.327427678472058687e+02
-5.958825463010381895e+01 1.409374285565727369e+01 -4.341955786568765916e+02
-4.571039823225557086e+01 5.771873272099366403e+00 -4.363828319444415911e+02
-5.374498634361872718e+01 1.628509663716804923e+01 -4.367253020528852971e+02
-5.513806827818877565e+01 2.401544279901463241e+01 -4.385863657605836465e+02
-6.378156228061721578e+01 2.399235315792723000e+01 -4.341184894567808215e+02
-6.012964368135467907e+01 2.600137008279089201e+01 -4.366814187323831788e+02
-6.257589791164546256e+01 3.281449933728454482e+01 -4.365334272255423684e+02
-6.525472254468179756e+01 3.929699654460500824e+01 -4.329555866178448582e+02
-1.928699780275503173e+01 3.951136052792531217e+01 -4.374007408364785192e+02
-6.520610815744640831e+01 4.236970772679348585e+01 -4.368418497464331267e+02
-2.003514113292236587e+01 4.616359109425175689e+01 -4.380165068112387985e+02
-1.601786462859685045e+01 4.121663954544159481e+01 -4.364735758505912031e+02
-1.376272558207705821e+01 4.093654965837104953e+01 -4.362533073867114126e+02
-6.586443346371412133e+01 5.711834168746467100e+01 -4.409939639966219715e+02
-9.484866086751718939e+00 -9.367839340822072813e+00 -4.401541095871377252e+02
-3.283243648703183482e+01 -3.403592373372974045e+00 -4.379869219094726418e+02
-1.123151123562645637e+01 -9.104020020090517917e+00 -4.373869665722426703e+02
-9.247321185997797954e+00 4.387094826638036515e+00 -4.391554789907489180e+02
-3.808288556259742563e+01 2.902393821699349008e+00 -4.386778623913046431e+02
-4.827692162943409926e+01 1.521904465553160613e+01 -4.382055514309216733e+02
-4.275753376107901005e+01 1.151329293153740352e+01 -4.393368643017928434e+02
-6.435234701598142237e+01 3.669987318042370816e+01 -4.349292397819164080e+02
-1.368468331853175712e+01 4.570554829984368439e+01 -4.380156993384619568e+02
-1.568820142920011307e+01 4.341722847518965978e+01 -4.371142612384229551e+02
-1.160235497010836170e+01 5.249631531944860541e+01 -4.355473828844738478e+02
-1.486060416704959408e+01 5.460158648174662233e+01 -4.383573063378078132e+02
-6.339972018711299739e+01 6.624610192626258254e+01 -4.414184979433711646e+02
-2.347109447337215471e+01 6.383094155126894265e+01 -4.367187337233025346e+02
-5.550190477189222804e+01 7.207113359867403801e+01 -4.343876972933875322e+02
-5.690343308857133309e+01 7.241260922321158944e+01 -4.387987892271036117e+02
-1.875954525067218626e+01 -1.120443602275031125e+01 -4.407309359345504731e+02
-2.799639555214482201e+01 -5.537814037773767240e+00 -4.410804113450499813e+02
-4.027636885686203527e+01 7.388062642897804011e+00 -4.393222347656525244e+02
-3.688191321766382913e+01 6.187739301764096922e+00 -4.419591612453018001e+02
-5.847592756378018919e+01 3.061798800265011877e+01 -4.391090667942378900e+02
-1.752856452593605852e+01 3.325225307799546925e+01 -4.381475693075003619e+02
-2.111558524799838921e+01 3.609681656875790878e+01 -4.407891905432708768e+02
-2.042877719500489420e+01 3.774303789986628033e+01 -4.384226858628584296e+02
-2.167237758779483414e+01 4.383526467549578598e+01 -4.382146953577403679e+02
-2.698711494740469519e+01 5.427765360854237287e+01 -4.403995429984196903e+02
-2.433839077701545150e+01 4.978636634265061645e+01 -4.392339003718783488e+02
-1.623958537859131113e+01 5.884474426678555403e+01 -4.361550658323733387e+02
-2.049169390698529725e+01 5.943595891603071379e+01 -4.395503149297499590e+02
-6.143203396018128615e+01 7.045468314743585836e+01 -4.411476263846772099e+02
-4.937899840591152412e+01 7.132320979154896179e+01 -4.386133013893694965e+02
-1.326917619906073398e+01 -1.170176632314638887e+01 -4.395279701236088954e+02
-1.415086071218843244e+01 2.565258360641672652e+01 -4.384184934608060757e+02
-2.957385966673439270e+01 5.093892932325854161e+01 -4.400112224265670875e+02
-2.036032299183817074e+01 5.295625050567181091e+01 -4.406155010297207468e+02
-1.697524654715817860e+01 4.941271026761432950e+01 -4.393109476811890772e+02
-1.037305621685542256e+01 4.626035652854097435e+01 -4.367115989672975616e+02
-3.382206207934734010e+01 5.589519284636853058e+01 -4.406538919656097164e+02
