-2.590920285615863627e-01 -3.722125070100472044e+01 -6.215966116851778906e+02
3.269107656987341182e-01 -3.841250278039827748e+01 -6.251191626556181973e+02
-8.272339541476180003e+00 -2.073575155332255093e+01 -6.219549881686477875e+02
-1.240984128005124916e+02 -2.824382038605729406e+01 -6.256192783393036052e+02
-1.196557862616920573e+02 -2.033482304436099852e+01 -6.254566252605387717e+02
-1.066721341188890335e+02 -1.699372545599402651e+00 -6.155072882709839632e+02
-1.092521683620637276e+02 -3.803621771858246792e+00 -6.176691609205691975e+02
-7.549192864837046102e+01 6.926166099812841992e+01 -6.146603908604722619e+02
-7.153301067820497394e+01 6.267375474576156336e+01 -6.235188814858641990e+02
-2.024155325919142712e+01 7.772661006566730180e+01 -6.151883489215817917e+02
-8.583959826392099046e+01 -8.031128137476845552e+01 -6.225065679622014159e+02
-3.480545200707713782e+00 -4.674214243833384330e+01 -6.250577971259092465e+02
-2.473471979772812546e+01 -2.973058325331340512e+01 -6.256718093234678690e+02
-2.073109157410051040e+01 -2.904472020897895135e+01 -6.204952370658558038e+02
-2.297611691474300599e+01 -2.467326966805305588e+01 -6.242525221937567039e+02
-1.864372007272822884e+01 -2.291071921968338287e+01 -6.226951143687499552e+02
-1.959367715759776374e+01 -2.609501879037931360e+01 -6.203909245362384581e+02
2.649668775477468330e+01 -4.035948351647896004e+00 -6.272477669637771669e+02
-8.979907110985533336e+01 -2.045151351481968582e+00 -6.240463661962764945e+02
-8.271077860271714144e+01 3.707584671589291947e+00 -6.231852359621517508e+02
-8.851539327957684122e+01 1.120109880025500892e+01 -6.177323283717712457e+02
3.376622128464046568e+01 1.754267807056113071e+01 -6.175400691922144460e+02
-1.212885447324651977e+02 -6.852135752118140033e+01 -6.235050500768974189e+02
-1.262398871347304521e+02 -6.079779511569011419e+01 -6.242204706935291370e+02
-1.263160306230750507e+02 -2.961581162031040648e+01 -6.186122648660757477e+02
3.121829247635258398e+01 4.141924185124569391e+00 -6.229673408497883429e+02
-8.539677454416238334e+01 -3.957189381450604282e-01 -6.227671240930588965e+02
-8.538369996714874333e+01 -1.262117292142040270e+00 -6.236323350779636030e+02
-8.464700944959989215e+01 6.240915886273802338e-01 -6.225526096883623950e+02
-8.498061670831179981e+01 1.372357142217289994e+00 -6.221573912010476306e+02
-6.918739165866151097e+01 6.816477688054000339e+01 -6.219205306114735095e+02
-6.331150265294534307e+01 7.386666842151767298e+01 -6.199644511875507078e+02
-1.151961721485370447e+02 -7.270921332325514186e+01 -6.243051178564217025e+02
-6.025452131849245774e+01 -7.713454035372502915e+01 -6.243710551754051039e+02
-1.291184071953461796e+02 -5.231788810449066318e+01 -6.249130596057859748e+02
-2.519655211614098889e+01 -5.653615842907874622e+01 -6.223580555269775232e+02
-1.295438047677481279e+02 -5.164254761913814207e+01 -6.230202369877654291e+02
-1.297974571595160569e+02 -4.155253845921173905e+01 -6.232604470747849064e+02
-1.296326132521169257e+02 -4.284206360477233488e+01 -6.249317615701293107e+02
1.373376454676147107e+00 -4.241980962666801247e+01 -6.206124582478621505e+02
-1.274855714946997836e+02 -3.497680586115125578e+01 -6.245918613924135343e+02
-1.029764226294987139e+02 -3.636592841126665920e+00 -6.240406157771253675e+02
-8.406641518661461987e+01 1.142976856910964178e+00 -6.228110157095868544e+02
-7.767000967465662598e+01 2.072779838827165477e+01 -6.249512225583773670e+02
-8.085098299416694090e+01 2.267005182251208950e+01 -6.225915842623805929e+02
-7.841174513827724013e+01 4.293541849260474663e+01 -6.226780713213850049e+02
-7.324101210662816186e+01 4.400814989410791611e+01 -6.275373237816290839e+02
2.224218391282583696e+01 5.288887072790985400e+01 -6.312291898990131358e+02
-2.819909665013077671e+01 7.235224080331300911e+01 -6.271566270931079998e+02
-9.600038890944345837e+01 -7.923283588887878182e+01 -6.234286111554423542e+02
-7.323119783212776213e+01 -8.076299490495664202e+01 -6.206686549143802267e+02
-5.391764213756142965e+01 -7.423133392073711434e+01 -6.233770267197140811e+02
-7.214179348701978078e+00 -3.645920503433307402e+01 -6.288379865321394391e+02
-1.033526990950125679e+01 -3.711315301221048912e+01 -6.226664773435056759e+02
-1.358849522426297263e+01 -2.082475323344880280e+01 -6.241282103429326753e+02
-8.998408064980112897e+01 -2.837121638333344187e+00 -6.272236184525994531e+02
-9.573813105865542639e+01 -1.800473419150367738e+00 -6.220571996233214804e+02
-8.301713661940068789e+01 -3.241165801142620873e-01 -6.244832264856074744e+02
-7.590904807339418880e+01 -1.205282111116785737e+00 -6.270572963574612686e+02
-8.301676883720881506e+01 9.631684721339830446e+00 -6.220279773325895576e+02
3.508666406016180872e+01 2.225917379177651512e+01 -6.233416611445809394e+02
-9.014829050073043959e+01 -7.765698725711804684e+01 -6.309247156417583255e+02
-9.898348125173924927e+01 -7.683470866722964843e+01 -6.293541539226861232e+02
-1.048954272563785963e+02 -7.718539362691865335e+01 -6.241034687631685074e+02
-1.203625976095042631e+02 -6.872687500780857306e+01 -6.251975762571009909e+02
-3.326417796025589979e+01 -6.128448946789279717e+01 -6.221680811414425989e+02
-2.368563696895364146e+01 -5.502029843940751874e+01 -6.294602258398795129e+02
-2.856412653613278785e+00 -3.692685436572946855e+01 -6.305344357665584312e+02
3.489305642550360886e+01 2.814580400159777440e+01 -6.233934692930770325e+02
2.641791220131567286e+01 5.035879205617093390e+01 -6.242204029759417381e+02
2.746348482050178319e+01 4.710587291315328429e+01 -6.318153920991734367e+02
-6.551656962402383044e+01 6.417364109711795095e+01 -6.280924283464111113e+02
-5.186783626216551824e+01 6.574924641640106415e+01 -6.338727646808808913e+02
-4.044478164034165246e+01 7.013527135235115395e+01 -6.293794373556830806e+02
-8.621585378665673716e+01 -7.846449575842061108e+01 -6.292786636397855773e+02
-5.543004057635921811e+01 -7.375038112396393331e+01 -6.302725472591058633e+02
-3.423043201714104811e+01 -6.080139151806483966e+01 -6.327035437594847735e+02
-1.255114455500373225e+02 -5.824934632746997920e+01 -6.303809277130199007e+02
-7.830196170991456484e+00 -4.877104878583035941e+01 -6.255801090656459564e+02
-3.344280537576549417e+00 -4.521359336706931487e+01 -6.297551796161070570e+02
-1.845317540581288718e+00 -3.712050628756674797e+01 -6.260972876837071226e+02
-2.753366458928892513e+01 -2.814081495239569364e+01 -6.276809591990922854e+02
-2.577845016591913208e+01 -3.125489642747387364e+01 -6.303324360744103387e+02
-3.383672417556460488e+01 -2.588725930374274142e+01 -6.303929745642349189e+02
-2.721325624561927725e+01 -2.393449297843626056e+01 -6.270693151875780131e+02
-2.177640783950334935e+01 -2.117429903498867461e+01 -6.261485872487909319e+02
1.404684082533023126e+00 -1.969695335541176462e+01 -6.308208072475565587e+02
-6.835635750909857222e+01 -7.556172050776848614e+00 -6.300037319859047784e+02
-7.878469187775999671e+01 -4.052240700960850539e+00 -6.289349643105023233e+02
-8.489939577063913134e+01 -2.854926370325882257e+00 -6.265150490709485211e+02
-7.402666748390812756e+01 2.054240565094192839e+00 -6.272933241844399390e+02
-7.351196024481266988e+01 1.505006017470062396e+01 -6.269786148045146774e+02
-6.579759642951594856e+01 1.215251432681369792e+01 -6.307951371629001187e+02
-6.999336451689447358e+01 2.222860969444578316e+01 -6.304555533325260512e+02
-7.463687058331368007e+01 2.446466350833090786e+01 -6.273153434870652063e+02
-7.636356685736994621e+01 3.319145138965551212e+01 -6.256136107269443301e+02
1.945595206754196171e+00 6.603811138571016670e+01 -6.296293646101586319e+02
1.144187455617863591e+01 6.362746604534135031e+01 -6.234266371772152979e+02
-4.584908016013744003e+01 7.583518510412523028e+01 -6.202021006147585922e+02
-1.279037503204450843e+02 -4.512172940497054441e+01 -6.313853997135752252e+02
-1.265987443969658415e+02 -3.669335784187725125e+01 -6.311261856374343324e+02
-5.486472504484050461e+01 -1.265491843012341810e+01 -6.312680079958273609e+02
-5.680510593441582756e+01 -8.177807776029583309e+00 -6.303484074285075849e+02
-6.528967871434268488e+01 -4.923842610689982635e+00 -6.292650638926304509e+02
-6.355921394009429548e+01 -1.316681150291700853e+00 -6.292313899743086267e+02
-5.854297452445241845e+01 1.088711868812635597e+00 -6.315815911978575059e+02
-6.369256305387934702e+01 6.969896188810540139e+01 -6.248140293415987117e+02
-7.271738423742141322e+01 -7.427887102551359533e+01 -6.436412088780308522e+02
-7.356677630460370665e+01 -7.914550358579708700e+01 -6.271677872081378382e+02
-1.081795025539865094e+02 -7.259286473674025331e+01 -6.326557122071332060e+02
-1.068352459050716590e+02 -7.334328615720613698e+01 -6.309827913839394569e+02
-1.211905392798191627e+02 -6.505807902326337455e+01 -6.294995504219534723e+02
-4.297073957115551224e+01 -2.163835090296900887e+01 -6.323897164951187051e+02
-3.375385592966815551e+01 -2.070724130189483603e+01 -6.298794828438716422e+02
-4.364682656453932452e+01 -1.759558090384241780e+01 -6.316768973466929538e+02
-5.162651181503626674e+01 -1.659565438666220061e+01 -6.322321800728766448e+02
-9.158406214858874961e+00 -1.948207268057553421e+01 -6.283618884702455034e+02
-1.265216971647561728e+01 -1.906421874446835929e+01 -6.318766389522886584e+02
-2.578911200853876196e+01 -1.777705356173224516e+01 -6.299135542964335173e+02
-2.874859390092524691e+01 -1.880449760756472344e+01 -6.294517002492884785e+02
-2.070517930685041463e+01 -1.798754697768648469e+01 -6.301113726533924364e+02
-3.797531479773888208e+01 -1.565689558423165728e+01 -6.314681851799585957e+02
-3.558277915866505481e+01 -1.330875735215594702e+01 -6.328344810204416717e+02
-5.403806166887105888e+01 -7.192441300526299486e+00 -6.311237147009355795e+02
-4.351424467725544076e+01 -1.041293741439534593e+01 -6.326404359898698431e+02
-4.560484464927774440e+01 -1.342154789924525637e+01 -6.315076109245180760e+02
-7.969252857409010460e+01 -5.553083642745868964e+00 -6.312825439273397023e+02
-7.995898253765591335e+01 -6.219315257978784039e+00 -6.341956009272015535e+02
-1.036808980170453651e+02 -6.824858376135042093e+00 -6.312005998632841965e+02
-9.814684900317833183e+01 -3.283420215500710615e+00 -6.275681421489869081e+02
3.013678762975566983e+01 1.305579898743388645e+00 -6.273741587813069600e+02
-6.630913507658759443e+01 6.329706256921162399e+00 -6.295686797295239785e+02
-5.832018173967826158e+01 4.702909442823730579e+00 -6.340826390702500248e+02
3.329128440641777331e+01 1.145491926926851534e+01 -6.270276638241724640e+02
-7.210190423944611382e+01 2.939180173091579107e+01 -6.295963103424737710e+02
-6.652586157781524889e+01 4.005236125666168334e+01 -6.345755654543377204e+02
-6.873498128362338377e+01 3.278877602319973761e+01 -6.327770441422193244e+02
-6.163343647720827789e+01 5.601394626045264147e+01 -6.353097731212961889e+02
-1.666652471485901899e+01 6.705661181738767596e+01 -6.358349377802956042e+02
-1.877349907371796434e+01 7.172241028243149685e+01 -6.278114100872876406e+02
-8.797599428973240876e+00 6.883435806070060892e+01 -6.299667651183841599e+02
-1.127910481442221595e+02 -7.150943319369211792e+01 -6.297374525507477756e+02
-1.207146775751519954e+02 -6.445063623029233213e+01 -6.315713801108502139e+02
-1.253463916761240000e+02 -5.783532382348464296e+01 -6.326999386768843578e+02
-3.384090327724177671e-02 -3.954840568784743482e+01 -6.292836185724679581e+02
-1.235240656656105962e+01 -3.556198119169906136e+01 -6.339521814132241389e+02
-1.207545932239893318e+02 -2.579261772974770039e+01 -6.308243637966376127e+02
-3.537393628419165736e+01 -2.698230953156002698e+01 -6.319351559986529310e+02
-6.583168179988003033e+01 -1.131754094907816111e+01 -6.321740213431212396e+02
-3.867103379420964870e+01 -1.022474322940154501e+01 -6.353028713234871248e+02
-5.227112548319336582e+01 -3.790893889474871159e+00 -6.331585140784554824e+02
-4.261461430354107449e+01 -8.591478282290600177e+00 -6.340323805686157357e+02
3.422224876446664865e+01 3.469486306215679861e+01 -6.298424483326937207e+02
3.501472615062212412e+01 2.507112241669561570e+01 -6.310091046816409062e+02
3.134893157015847365e+01 4.072752419000800472e+01 -6.321840649763621514e+02
-5.737714764112620713e+01 6.566467148683695143e+01 -6.324204751249516221e+02
-2.665037993443972297e+01 6.867614156735864128e+01 -6.330358293354805710e+02
-8.338027519215121686e+01 -7.463863297909904304e+01 -6.420824403969055538e+02
-4.437200929445092612e+01 -6.717569836025320740e+01 -6.306493272506560288e+02
-2.279970325852127999e+01 -5.372080403666711845e+01 -6.375129249783876730e+02
-1.274666855993395700e+02 -5.132184202021183950e+01 -6.314245630022975320e+02
-1.489480820838222641e+00 -3.807580058523361544e+01 -6.328654552983103940e+02
-1.776069140494090348e+01 -3.498949188213499895e+01 -6.302196131671181547e+02
-2.917658818786418706e+01 -3.116295376638504067e+01 -6.366249844296572746e+02
-3.397305389490787775e+01 -2.883861779483326515e+01 -6.337874888224152983e+02
-4.316376090344384409e+01 -2.356641139879627644e+01 -6.338926637824641830e+02
-2.538294799239911725e+01 -1.571366983234999459e+01 -6.328586356303334242e+02
-2.119335136231919492e+01 -1.620580179613744320e+01 -6.352707684945273741e+02
1.766401466465272563e+01 -1.328127799755170813e+01 -6.318969297282881143e+02
-7.129873073652044013e+01 -9.776427142634844358e+00 -6.356179211402360352e+02
-8.652666713238072305e+01 -4.110901604546943311e+00 -6.354972947146021625e+02
-6.318183573081211080e+01 1.529926544477629413e+01 -6.332249828233775588e+02
-4.122440412918262354e+01 6.343519243545109276e+01 -6.382112400658232900e+02
-3.449579550810252471e+01 6.735089611650005281e+01 -6.339949789340511188e+02
-9.782208524305509911e+01 -7.572908351310441333e+01 -6.326833331696257119e+02
-1.193696872395344428e+02 -6.568369544628038170e+01 -6.328320280591871096e+02
-1.274981935717821813e+02 -4.874203934420636841e+01 -6.335036109041843702e+02
-1.176847462925207921e+00 -4.149366355409608786e+01 -6.319003326598756303e+02
-1.180022200170861737e+02 -2.727436140014093979e+01 -6.369343553651834782e+02
-4.140147695113770965e+01 -2.565203673216615954e+01 -6.359138226323467507e+02
-1.379259055303072401e+01 -1.936820175247994058e+01 -6.368427682565989016e+02
-7.052236664285302048e+00 -2.067953713775907332e+01 -6.366683774734751751e+02
3.583134789882733706e-01 -2.112745614706202701e+01 -6.360895361098542935e+02
9.245473069400397037e+00 -1.767152223416530177e+01 -6.312688153919973502e+02
-6.735217870226769321e+01 -1.161566529309048690e+01 -6.334930348178662598e+02
-5.367899460952185109e+01 -1.794307440730063163e+01 -6.339786405844389492e+02
1.917458956671674031e+01 -1.295825982203218096e+01 -6.347798071693399606e+02
-6.700302795802882372e+01 2.448370230522803226e+01 -6.335974745939042805e+02
3.447419441474339408e+01 3.166953432640968913e+01 -6.339467803971007243e+02
-6.402828462688246702e+01 4.668782456143308224e+01 -6.361219552348941306e+02
1.904527923000226863e+01 5.062633948136756601e+01 -6.433567289902923676e+02
1.600416388030651405e+01 5.850817513463126573e+01 -6.305618226327849243e+02
1.356561563198839693e+01 5.757729190889170923e+01 -6.375438582584289406e+02
-9.074183508045938140e+01 -7.539855093819096510e+01 -6.372575296545081756e+02
-1.266016113126625839e+02 -5.297516952338855845e+01 -6.360521782710770822e+02
-1.263131196347585075e+02 -3.778137749282130642e+01 -6.334850934121274122e+02
-1.107317163745203885e+02 -1.267656095424097273e+01 -6.308528465596206161e+02
-8.479997920134944422e+01 -3.997035070543523361e+00 -6.369538249750034993e+02
3.298057316479079759e+01 8.951682368253742084e+00 -6.330353038755409898e+02
-6.391571774221089441e+01 3.047831900750676937e+01 -6.375658535743125412e+02
-1.139752554299249852e+02 -6.796686273010884349e+01 -6.381425527798381836e+02
-1.101591028443771734e+02 -7.087123534669299829e+01 -6.353479206214291253e+02
-3.920568070356996060e+01 -6.251379194898174774e+01 -6.418724684407953873e+02
-5.327580733087949483e+01 -7.030688119313262519e+01 -6.402009422714975244e+02
-3.882010014907210405e+01 -2.707451777314007302e+01 -6.385489442601326573e+02
-5.515325702143925923e+01 -1.823210677718205375e+01 -6.367698588166098261e+02
-5.729381173468821942e+01 -1.724366642355451873e+01 -6.355421330944138845e+02
-3.006590055820453600e+01 -1.323598820165093137e+01 -6.382936867133262240e+02
-2.918361816500013362e+01 -1.331825410809597088e+01 -6.350677228405294272e+02
-1.003821611015733737e+02 -6.529342578627154836e+00 -6.375266523329651136e+02
-9.758537956682462777e+01 -4.521143720339080296e+00 -6.341666283493256060e+02
3.032999332324738262e+01 2.367389649156514064e+00 -6.437130298711240357e+02
3.322372444310622086e+01 1.228088659403377925e+01 -6.401488833072106672e+02
-6.040756996420380176e+01 1.125262748942709656e+01 -6.349320178818312570e+02
3.410633988839759922e+01 2.208030588563765662e+01 -6.388047871538482241e+02
-5.278418090612400704e+01 6.084521630567265049e+01 -6.381771313975664270e+02
-4.707236926562531920e+01 6.228350498117594469e+01 -6.387209063534952520e+02
-1.192172734354956418e+02 -6.502919944626698623e+01 -6.360215343607246723e+02
-1.198135136976727608e+02 -6.375040330033723279e+01 -6.380870672154429712e+02
-1.233586008278328023e+02 -5.936241037880909488e+01 -6.361892251810593280e+02
-1.814227993091399327e+01 -4.994619131313506699e+01 -6.448428436719013916e+02
-1.752707453019260342e+01 -5.197118672223898272e+01 -6.311430101083669797e+02
-1.880792209272131643e+01 -3.455900945770427057e+01 -6.356145968884989088e+02
-6.557846238071202549e+01 -1.150041918239851135e+01 -6.381007137381240000e+02
2.260318795008427983e+01 -1.083688358000697782e+01 -6.378553657554574556e+02
2.747065100350655698e+01 -4.490846682187957128e+00 -6.406645709232859645e+02
2.469121426675610920e+01 -7.634101372943007391e+00 -6.350650634242981596e+02
-9.234546380617524619e+01 -3.685401870118327317e+00 -6.359822990458272898e+02
-4.989791880783354117e+01 -3.591295685079083366e+00 -6.354857897788832588e+02
3.026014603039565642e+01 1.255349827331569967e+00 -6.340186107561653444e+02
-6.168873671803331860e+01 4.822317019960519957e+01 -6.378688202221405845e+02
-1.079077245375310241e+02 -7.106978271827097160e+01 -6.378918681353811735e+02
-1.102272906526625746e+02 -6.811606798284934428e+01 -6.441857270316995709e+02
-2.754247299857249942e+01 -3.157594659519384805e+01 -6.436219690581058330e+02
-5.256760866879938376e+00 -3.623747804750446733e+01 -6.362983375527360295e+02
-1.760941249418371513e+01 -3.432487777152412889e+01 -6.418304120029408750e+02
-1.240853831425447851e+02 -3.622308655753786866e+01 -6.362108239944167281e+02
2.377811187707556950e+00 -2.570360122792131108e+01 -6.446741711413266103e+02
7.368533628449219108e+00 -1.991572542477322472e+01 -6.356934460355112151e+02
1.602734066280187264e+01 -1.617037102292372097e+01 -6.366943370863295968e+02
1.993272314329554362e+01 -1.587851989827866461e+01 -6.435405780844855599e+02
-6.028165555694103972e+01 -1.546812146283076927e+01 -6.366219570016833131e+02
-5.754259786250739950e+01 -1.520684167117924979e+01 -6.405985902455645373e+02
-7.705697284507311906e+01 -2.634442160701660374e+00 -6.417451381413125091e+02
-7.772954865409631964e+01 -6.796170251678785412e+00 -6.356820283831781353e+02
-6.006906350530154981e+01 1.394536629271512496e+01 -6.397238476310344595e+02
-6.159555525175996848e+01 1.833677676488320785e+01 -6.375823707472559363e+02
3.314075250630614278e+01 3.124991669937970329e+01 -6.407299376522109924e+02
2.541084574289429909e+01 4.632411981594299988e+01 -6.395651407910090711e+02
-5.882577556512909922e+01 6.164547368859170007e+01 -6.348462522634591778e+02
-5.668344497367018420e+01 5.719770013669302955e+01 -6.384744421788773252e+02
3.738063486466261409e+00 6.280783773504580125e+01 -6.371395590506901954e+02
-3.936623933895813821e+01 5.828954705638270894e+01 -6.450325365412268184e+02
-2.546393743152305689e+01 6.490057501280149665e+01 -6.384573082349812694e+02
-6.073884577919238126e+01 -7.556023206970434103e+01 -6.329169162250328782e+02
-6.362080855424382264e+01 -7.306788407259713836e+01 -6.438165528997321871e+02
-1.166239878040856723e+02 -6.446653167453121114e+01 -6.431710731179131244e+02
-3.200418310382170972e+01 -5.826305401469189604e+01 -6.433675988822901672e+02
-7.829878207593429451e+00 -4.567125595289286366e+01 -6.377184138555801383e+02
-7.800299533871315916e+00 -4.363477389956623398e+01 -6.440272481431636606e+02
-5.593268090974994777e+00 -4.058579217627370639e+01 -6.442098836800545314e+02
-1.256905878061755288e+02 -4.483990031345870619e+01 -6.369576025069029583e+02
-2.987351082606243047e+00 -3.913253540271020370e+01 -6.381024572891467415e+02
-2.821911093147742022e+00 -3.787822036032545725e+01 -6.365485003015651273e+02
-3.550185913721883679e+01 -2.787161104090498398e+01 -6.454247110336540345e+02
-1.009777766982835701e+01 -2.215719652592770572e+01 -6.414581325520779274e+02
-6.861750939659580695e+01 -6.882698922889793458e+00 -6.414046430792229785e+02
-3.917883616867958096e+01 -8.924741430966577127e+00 -6.394283195215009528e+02
-9.460604201252763801e+01 -4.167449633926010755e+00 -6.400172850072140136e+02
-5.925240826661435989e+01 1.132876008130014966e+01 -6.408483893074067055e+02
-5.689291958143857642e+01 6.090194222162827131e+00 -6.391065159297244236e+02
-6.235050686157008215e+01 2.389658591306222490e+01 -6.387914023674887858e+02
3.180725188937926973e+01 3.544174372187331556e+01 -6.406293758958606759e+02
-6.409716389862370534e+01 -7.619704943112786566e+01 -6.336709010878946629e+02
-1.016314923727988884e+02 -7.313468623225489296e+01 -6.376575229117654544e+02
-9.549463020195457830e+01 -7.252651438671081507e+01 -6.440633883249583960e+02
-1.255158342975699384e+02 -5.410000041384902403e+01 -6.381612190500773067e+02
-2.366869329664180910e+01 -5.319743871022777171e+01 -6.448902229996649567e+02
-4.033212847141999902e+00 -4.212389255443831360e+01 -6.379390347255658753e+02
-1.214773996964452749e+02 -3.537914009340672550e+01 -6.397153043546678646e+02
1.206989214305887970e+01 -2.176635263686537058e+01 -6.422056165583651364e+02
-1.055012563619790456e+02 -1.188963433003167225e+01 -6.378452768844281309e+02
-1.002215961879605004e+02 -7.596055436441402797e+00 -6.401503822094600764e+02
2.600927210267883538e+01 -8.401608230406067079e+00 -6.470810726043458772e+02
-8.851062476932108325e+01 -2.128867270957236713e+00 -6.423451718465429394e+02
-8.196772105867597702e+01 -1.233254482010170072e+00 -6.430126434285173218e+02
-6.057249243410132777e+01 1.840039435120941391e+01 -6.426699439352456693e+02
-6.089241063546648292e+01 2.334012463255147907e+01 -6.422010816418355716e+02
-6.036199297281395104e+01 3.100680863982032776e+01 -6.416373628133968623e+02
-2.820906697926590567e+01 6.142936693815146043e+01 -6.429412572160655372e+02
-1.208527499894727555e+02 -5.935766093690104839e+01 -6.425559632341005454e+02
-1.224538787243670583e+02 -5.385838263396544789e+01 -6.439464363371142781e+02
-1.248030380080034121e+02 -4.991396205598488933e+01 -6.400754268112074215e+02
-2.001365833905039793e+01 -1.805203779087290172e+01 -6.403553840193609403e+02
-2.921284159062535934e+01 -1.441082626266124933e+01 -6.410211965059448858e+02
-8.899603836681053792e+01 -2.473852223939519313e+00 -6.464436748994656909e+02
-5.127187018880133706e+01 -9.966318246114740376e-01 -6.403537329814173518e+02
-5.690345380431321587e+01 5.997600975457035410e+00 -6.413306413756320126e+02
-5.848712915204870200e+01 3.855696123480669968e+01 -6.421995857382447639e+02
-4.401735270069181638e+01 5.740252344863015566e+01 -6.442699632655992446e+02
-5.040437717963975928e+01 5.646352775807893210e+01 -6.424295157105135559e+02
-1.007089550339878059e+01 6.409909474325681344e+01 -6.413328847154765526e+02
-1.031641755556674553e+02 -7.056208918454431966e+01 -6.437903341558842385e+02
-1.191329482099039296e+02 -6.049972532096705180e+01 -6.456811402210209963e+02
-1.216421755085794842e+02 -4.949442910710290988e+01 -6.456593034465320216e+02
-5.930640142557777494e+00 -3.892615174400103228e+01 -6.453911327546181838e+02
-7.000667791579705757e+00 -3.606130250450498664e+01 -6.399598401967430163e+02
-1.207208208566889596e+01 -3.568610141958342297e+01 -6.487823571875494508e+02
-4.114856130575215154e+00 -2.478632962081682223e+01 -6.441061254134593810e+02
-1.795252941085152898e+01 -2.155756950909483649e+01 -6.457303004871085932e+02
-5.261428564631581395e+01 -1.661874662116497703e+01 -6.452894008830121493e+02
-4.215283755329382132e+01 -2.474847873807909338e+01 -6.424768000838529360e+02
-2.709620778814561248e+01 -1.747974294184937349e+01 -6.446401981311213376e+02
-3.101352377403098615e+01 -1.621604969579184541e+01 -6.464739509923227843e+02
-4.353026995196758264e+01 -6.695355636256568488e+00 -6.418086474532564125e+02
-6.113001247025513152e+01 -1.020344402284389851e+01 -6.436834178878752937e+02
-6.054827801031193957e+01 -8.909217242335172315e+00 -6.462255432982919956e+02
-5.185608572327482335e+01 -2.643808876677876007e+00 -6.475752309000303057e+02
-5.172102488025068112e+01 -8.194198855477158316e-01 -6.427922698046672849e+02
-5.629871412224931504e+01 4.065641867719602232e+01 -6.442095735249479276e+02
-5.619994700293389656e+01 3.601834004925318311e+01 -6.472955982886816173e+02
-5.913671633833376973e+01 3.180540181945642075e+01 -6.435644053348910347e+02
-4.992842828382224951e+01 5.029314134065285202e+01 -6.464752894043626839e+02
-5.357529004825784114e+01 4.991569720146931388e+01 -6.438231819875688871e+02
-9.475684914573511719e+01 -7.161002814310303677e+01 -6.475112575640297337e+02
-9.113752459913000337e+01 -7.161220772273620128e+01 -6.499267772451838709e+02
-1.200003808025041678e+02 -4.579729377352403930e+01 -6.473764482228483530e+02
-4.429393728393852570e+01 -8.812533183605646414e+00 -6.477946283917292476e+02
-7.033396764147541091e+01 -3.708117749068891467e+00 -6.439465239161772843e+02
-6.722425644308052028e+01 -3.673650183883700571e+00 -6.465867193255052143e+02
-6.015603310619966493e+01 1.227701789231878315e+01 -6.440502551309124328e+02
-5.804311911892645526e+01 2.783745675109327422e+01 -6.477375345001204323e+02
-1.090787477971994690e+02 -6.811187971534769758e+01 -6.466665337468057260e+02
-1.198273853174821113e+02 -4.055254042821519533e+01 -6.448233256036634202e+02
-2.568418341295796026e+01 -2.025098138677748949e+01 -6.493422863032585610e+02
-9.277764021569254282e+01 -9.767080065545600931e+00 -6.525526933581162439e+02
-2.145400838213265438e+00 6.218648685203670823e+01 -6.429468375960449293e+02
-7.687660149725750180e+00 6.151904968253124650e+01 -6.456292804150093616e+02
-1.120686661618971129e+02 -6.612078735215185077e+01 -6.491824667663314585e+02
-1.158434354906719079e+02 -6.433518631177203417e+01 -6.462552160857230774e+02
-1.215344209412198353e+02 -5.343302143790381820e+01 -6.469215422811577128e+02
-1.199712228888556353e+02 -5.764363155967763674e+01 -6.489645708288496735e+02
-1.142932831752533396e+01 -4.360449054505367883e+01 -6.517004671389372561e+02
1.374813263455278900e+01 -2.290440220443236186e+01 -6.465405734129084294e+02
7.084765355899880213e+00 -2.522412018626347319e+01 -6.450159796498937794e+02
-5.142017297285055122e+01 -1.474942604166835203e+01 -6.513111261661694016e+02
-3.564052169292671124e+01 -1.496282891650714220e+01 -6.495857030859068573e+02
-4.525262071080980775e+01 -9.571738965433185697e+00 -6.508415554312430231e+02
2.659341079511874284e+01 -7.186917957788920397e+00 -6.532483172811471377e+02
-7.812241685288948645e+01 -1.046089852968395295e+00 -6.442111075179345789e+02
3.128021858891284879e+01 7.408321860953611449e+00 -6.479834449051644469e+02
-5.825096450795444980e+01 3.381691168488023091e+00 -6.480459671586894501e+02
-6.036651159597754912e+01 7.399820274408760667e+00 -6.482463317789447501e+02
-5.850857288775019782e+01 3.998866121132663931e+00 -6.498417390144320507e+02
-6.105283994236202716e+01 1.571227791656040296e+01 -6.477513149563675370e+02
1.273762770693653401e+01 5.531370203951186681e+01 -6.437325813153379386e+02
-4.724168955788709923e+01 5.410897902842965124e+01 -6.459523984283955542e+02
1.186033902009275920e+01 5.017542415590833826e+01 -6.540778090377791614e+02
-1.203286446728239270e+02 -5.238035460619761352e+01 -6.493189570642917943e+02
-1.150459579420842147e+02 -3.817691030980537903e+01 -6.500518400920244630e+02
-1.160449131344981026e+02 -3.398116310367201720e+01 -6.456120447271664489e+02
-9.072294603551704917e-01 -2.843996006936227516e+01 -6.523777238117399975e+02
-1.294702121103287062e+01 -2.537631686995614189e+01 -6.525609041149702989e+02
-1.087459658468694101e+01 -2.450502249406981647e+01 -6.475373387087647643e+02
-4.227652986509572486e+01 -2.187829705693697946e+01 -6.524456167986714945e+02
-4.216796792107468406e+01 -2.362678577808621938e+01 -6.469579370456963261e+02
-1.099714748589968565e+02 -2.403892082661484508e+01 -6.448271304009637106e+02
-9.750960827277219778e+01 -8.048551066942533083e+00 -6.449741271783607317e+02
-8.609054840634399852e+01 -1.062497029138308235e+00 -6.453601958505488483e+02
-5.461130864559680731e+01 3.605101274575112313e+01 -6.502711498260359804e+02
-5.148907148128702715e+01 4.600312555378146584e+01 -6.476274831275077304e+02
-4.472299083460896441e+01 5.128746465951731182e+01 -6.509363402892489603e+02
3.133046377137826966e+00 6.023423400750310464e+01 -6.435373309982912815e+02
-4.466261884701575591e-01 5.771126494423877773e+01 -6.498007367523028961e+02
-5.451384740576536103e+01 -6.941925459434040135e+01 -6.473915548443255830e+02
-1.559138457833117997e+01 -3.552349742239507435e+01 -6.553046950789417906e+02
-3.321327742373257053e+01 -2.791299377867204257e+01 -6.533689240472662050e+02
1.933207529937621771e+01 -2.006409728652094415e+01 -6.510343214757886017e+02
2.085413548030347997e+01 -1.816354734207396504e+01 -6.519212234060704532e+02
-6.230298159545122871e+01 -4.521999756021399364e+00 -6.516314083708988392e+02
-9.175198470969586140e+01 -5.342661332375842953e+00 -6.486879350120650543e+02
3.177783061313592938e+01 2.118270945998107635e+01 -6.490894880075051105e+02
2.997061806359803882e+01 1.507302379785101465e+01 -6.555472331300973110e+02
-6.117786298970548842e+01 1.248673550567952084e+01 -6.495183155330727232e+02
2.505599152389288520e+01 4.304323526279343071e+01 -6.458660467194189323e+02
-2.517195132370916255e+01 5.696311505605552838e+01 -6.499122606868721732e+02
-1.040295216487108974e+02 -6.774163085623190739e+01 -6.517877434730329469e+02
-1.175237854328645284e+02 -5.955674422442626792e+01 -6.522677632146422866e+02
-1.196423871654854594e+02 -5.653634009745574218e+01 -6.507934951727343105e+02
-2.149089523727599627e+01 -3.332765292027647064e+01 -6.468103068375176008e+02
-2.810412674387330156e+01 -3.089866241948377024e+01 -6.521439940856107569e+02
-5.107759929287259126e+01 -1.346981101340121434e+01 -6.548469295655868336e+02
-4.307255722145778520e+01 -1.147349197350158079e+01 -6.533214235340333289e+02
-8.362238177697125252e+01 -1.840746961532643500e+00 -6.535366082010573336e+02
-8.089908209266657479e+01 -9.226256448423156287e-02 -6.486498530801292191e+02
-7.507631407541734347e+01 5.537372580512563980e-01 -6.510333532563497556e+02
-7.625869783403182112e+01 1.441124358408767847e+00 -6.550103964250558874e+02
2.864401914897465673e+01 7.010042649968942996e+00 -6.576865642951771633e+02
-3.947516880076532431e+01 5.503223328471401743e+01 -6.495467790450823031e+02
-3.666474316723106597e+01 5.166713465130143845e+01 -6.559003751330185423e+02
-9.032456864660103690e+01 -6.926925927060224808e+01 -6.574145674065568983e+02
-1.169100450183137951e+02 -6.168408762384514432e+01 -6.503310255161939040e+02
-4.386677101294832681e+01 -6.228306956650047255e+01 -6.566777575491972812e+02
-1.056883012756820790e+02 -2.700610783420147598e+01 -6.525888398347608472e+02
-7.148172939800264025e+00 -3.748379811331176370e+01 -6.455361724612713488e+02
-9.483846071592429539e+00 -3.933939070234340818e+01 -6.512828630289695866e+02
1.183494968504257905e+01 -2.574324430058045721e+01 -6.524991583888795503e+02
-3.393524141185432796e+01 -1.654766512808923551e+01 -6.529515670626892643e+02
-6.059619215130472014e+01 8.130544519398918979e+00 -6.493394517193700040e+02
-5.856526515526071819e+01 1.391755766354075696e+01 -6.540479925876506968e+02
-3.014741475333054765e+01 5.626340797808533267e+01 -6.500872247950595693e+02
-2.091179020992364457e+01 5.399246204063739896e+01 -6.545469055293006022e+02
-4.656404382153632504e+00 5.286176482784828323e+01 -6.571930967929137068e+02
-1.054089418621246566e+01 5.364635585869474710e+01 -6.560218947784268266e+02
-1.177556635709517963e+01 -4.012342210535770448e+01 -6.560460549927814782e+02
-2.557003435008673620e+01 -2.092262892799840301e+01 -6.513587809977709639e+02
-4.289602293064887562e+01 -1.166496194063168090e+01 -6.566383180175319012e+02
-5.294065130884399650e+01 1.327577602230819442e+00 -6.589296773201857604e+02
3.077074401939357173e+01 2.780611813451205450e+01 -6.500159671888272896e+02
2.319934925639143586e+01 3.950545858614834316e+01 -6.543076846461805189e+02
2.921712622164696782e+01 3.357303904849622711e+01 -6.492636672957034989e+02
-1.114570458406398927e+02 -6.523411868306763495e+01 -6.518619733080812466e+02
-1.149060664854456633e+02 -6.189132987656334706e+01 -6.529742175427757047e+02
-1.174184801696301292e+02 -5.590237989538060503e+01 -6.540188876198504886e+02
-1.183729264628304776e+02 -4.921537880846588564e+01 -6.516083413217265843e+02
-4.457380221329365355e+01 4.674781852154890771e+01 -6.551538480567095348e+02
-1.494866151014344169e+01 6.098850692312622357e+01 -6.458705345649981382e+02
8.158428463939958464e-01 5.253554030919291762e+01 -6.569397786735103182e+02
6.134707525101164904e+00 5.218440676827427183e+01 -6.551950319272244769e+02
-9.645608819882237128e+01 -6.922206962398900032e+01 -6.535238722630884922e+02
-1.269466823029350877e+01 -3.644859622519884113e+01 -6.532326886065075087e+02
-1.432796838312374632e+01 -3.748922361562095062e+01 -6.584859836483394702e+02
-2.427270950591922727e+01 -3.248633740356016375e+01 -6.612467841683637744e+02
2.969305141561228378e+00 -2.916137350968402586e+01 -6.537138599287055740e+02
6.146405237648502329e+00 -2.830150406624860082e+01 -6.524749338601941417e+02
-1.061331671584961782e+02 -3.653202733441860062e+01 -6.600278139771070300e+02
-1.962289307954505446e+01 -2.397451949424132778e+01 -6.570077315756255985e+02
-5.458598485690751545e+01 -8.187292581454549634e+00 -6.582293496773913830e+02
-6.720304873296416304e+01 -1.199853563086678898e+00 -6.525680832434237573e+02
2.891155791947980802e+01 -1.947837395872039634e-01 -6.539881259403891818e+02
1.156982167440197173e+01 4.689026723563389965e+01 -6.583848995199490446e+02
-4.025781668438689564e+01 5.124098206206399198e+01 -6.548285459105310338e+02
-6.698993602064423669e+01 -7.189653053245102399e+01 -6.514981727447478761e+02
-1.038602734700090195e+02 -6.476328917764652715e+01 -6.595211897281313895e+02
-1.082296567625696042e+02 -6.346571032538993506e+01 -6.572558449553034734e+02
-1.131498835464988417e+02 -5.625374854056200036e+01 -6.592111089480439432e+02
-1.137895686541654641e+02 -4.325733959165637543e+01 -6.551243125607031743e+02
-1.669016467020735206e+01 -4.430636402883632741e+01 -6.605886300711525791e+02
-1.725157566739919091e+01 -4.612984297224573282e+01 -6.576791810350500782e+02
-3.926092232050468311e+01 -1.355723122593727581e+01 -6.595309625004972531e+02
-7.647613423304878211e+01 -1.787880583925641309e+00 -6.638301235392244735e+02
-7.452045722198016620e+01 1.126414263008374883e+00 -6.606507197930797020e+02
-6.646044349519566197e+01 1.912491819399190218e+00 -6.612250904920457515e+02
-7.947609614155884117e+01 6.029727603074059861e-01 -6.545457861454186741e+02
-5.574031715193160608e+01 2.841110099592419047e+01 -6.527746374905747189e+02
2.387357410866514229e+01 2.678367711968918030e+01 -6.636806253304998791e+02
2.563744561737883032e+01 3.350862846278247531e+01 -6.561612859684832983e+02
-2.682162925729818070e+01 5.304067931560145865e+01 -6.552956083320497100e+02
-1.152266740316757136e+02 -5.085334274656183595e+01 -6.567115818171483852e+02
-1.057552727014356542e+01 -4.148187611516809881e+01 -6.531300000331552837e+02
9.802946322577724914e+00 -2.668566023120324715e+01 -6.570125834671400753e+02
2.303712901814182601e+01 -1.293177707430954726e+01 -6.557274017769543661e+02
2.078018929538569282e+01 -9.234848885167446397e+00 -6.635796514047913206e+02
-5.578893227715030179e+01 4.322678944586188621e+00 -6.563481560532623007e+02
1.769006560354896962e+01 4.552283156391867180e+01 -6.539808140866578015e+02
1.350811112706606210e+01 4.245826331641266194e+01 -6.611316451648201564e+02
-3.361570838566071018e+01 4.867728641962862213e+01 -6.604410075399374591e+02
-6.517515703370793290e+01 -6.895775597091297016e+01 -6.663155121850752494e+02
-2.195899926410581315e+01 -4.650508816252613542e+01 -6.645064070003314782e+02
-1.519070778958682588e+01 -3.837953312076117385e+01 -6.605763035983601412e+02
-2.880006491482002318e+01 -2.979559898298108678e+01 -6.643880776239107036e+02
2.489215049861992313e+01 -6.842977079283672381e+00 -6.587030117244731855e+02
2.340748800524809070e+01 -2.721570963420957057e+00 -6.636048696023240154e+02
-4.531224283059659541e+01 3.704092708495947051e+01 -6.621935302319199081e+02
-1.566052740519746678e+01 4.910993290295035507e+01 -6.607580942573266611e+02
1.988023634755737845e+00 4.826161385633645295e+01 -6.610992897791225005e+02
-7.831269909736023749e+01 -7.157282675222390367e+01 -6.549720588183164409e+02
-5.330311425063098341e+01 -6.747418623763665835e+01 -6.553529493303864228e+02
-6.028473613965954314e+01 -6.796184726839230450e+01 -6.665147623201471561e+02
-9.347404172191342298e+01 -6.493316395751638481e+01 -6.651270469454818794e+02
-4.371990567890231461e+01 -5.822402749942669686e+01 -6.710337341954956401e+02
-3.013142755482411062e+01 -1.884755046974396109e+01 -6.589865275015612269e+02
-8.503393551165800091e+01 -5.362822422954978130e+00 -6.571977056164871556e+02
-6.040122577412257954e+01 -1.291839821955141021e+00 -6.606977450363117441e+02
-4.897659500826192414e+01 -4.854152817778444096e+00 -6.573138288501003217e+02
2.774111393702128225e+01 -1.701222993973787068e+00 -6.566018077156317077e+02
2.567760937406627164e+01 8.193892215969663440e+00 -6.636661954799556042e+02
-4.941344837976621562e+01 6.817758624386613953e-01 -6.653505281505773610e+02
-5.584113922605313007e+01 9.633987480234628364e+00 -6.582950587360768395e+02
-5.525346304213847048e+01 1.453886574827444989e+01 -6.592757326645872809e+02
-5.311892914287950163e+01 2.174614294049459673e+01 -6.603718662984332468e+02
-4.793406956377516082e+01 2.350010736756713214e+01 -6.670937168942757580e+02
-1.004905790714314833e+02 -6.435074749949792761e+01 -6.624850609817840450e+02
-1.074567804598393366e+02 -6.089003718606342375e+01 -6.618364405219734863e+02
-1.093294618907434312e+02 -6.014278099781915898e+01 -6.607964978079497769e+02
-1.067536100622347703e+02 -5.891113640985642519e+01 -6.648045409982147476e+02
-1.120803886162401568e+02 -5.462921982181486413e+01 -6.614704657325278276e+02
-1.122302448646633906e+02 -4.897827962009389324e+01 -6.602780598667540062e+02
-3.236948365268226979e+01 -5.630278208155691999e+01 -6.540118966127923841e+02
-3.016410752165599973e+01 -5.075903917002073484e+01 -6.681150641141992992e+02
-1.507061826448600073e+01 -4.151016766042660322e+01 -6.604918125524714014e+02
-2.140750740347388259e+01 -3.516377148736013680e+01 -6.648256408090721834e+02
3.339058770040193025e+00 -2.860856592003607801e+01 -6.604099188858807565e+02
-2.379812334721988165e+00 -2.892147091880893583e+01 -6.585530056830004924e+02
-5.809433685523806901e+00 -2.791148411866927859e+01 -6.672420143894227067e+02
1.698822993843450258e+00 -2.750347868529367545e+01 -6.665433491382171951e+02
-4.541091557860807626e+01 -8.374322792878990285e+00 -6.589992006145899950e+02
-6.146004221210848328e+01 2.280192673788951296e+00 -6.669726115882070872e+02
2.401224188248420788e+01 1.953872628600391437e+01 -6.658408891843770334e+02
2.783517810137838566e+01 2.571708348953795209e+01 -6.571829761879365606e+02
-5.170067716271086056e+01 3.302175574235677402e+01 -6.565463511574082531e+02
6.836130418418457033e+00 4.391800513181843257e+01 -6.633115459243450687e+02
-2.161047319678002765e+01 4.800724715475131177e+01 -6.618848188882931254e+02
-2.872073028204496836e+01 4.628773995356274895e+01 -6.637824233639199747e+02
-9.931581580345401505e+01 -3.573125806144321359e+01 -6.664447767028846101e+02
7.871830030909440445e+00 -2.691363660955088122e+01 -6.609343306212489324e+02
-9.246362130290717118e+01 -1.724456357825059882e+01 -6.594433830247417063e+02
-2.023260379157477473e+01 -2.411258960389483619e+01 -6.605735505051003429e+02
-6.599884558437992155e+01 2.727354107754500046e+00 -6.660463693698789029e+02
-7.073908415633935931e+01 2.067748710683383617e+00 -6.601581160684507950e+02
2.063138928599647670e+01 3.810439260202121403e+01 -6.587686412311257982e+02
1.643458149733273288e+01 3.070250575290306827e+01 -6.682510349483181926e+02
-1.078732385933579820e+02 -5.100983186478517695e+01 -6.666973882935989195e+02
-1.072348656010619976e+02 -4.055456193351521677e+01 -6.617452205386852029e+02
-2.190064386785887862e+01 -4.308494016273501614e+01 -6.680203822410244356e+02
-8.617192241344465486e+00 -2.757574905906549390e+01 -6.589910062218765461e+02
-4.843136065905231646e+01 -1.251668811812461080e+01 -6.627022884231937496e+02
-4.332126375034693666e+01 -1.599573517094844455e+01 -6.669983513820252483e+02
-5.075687094194681492e+01 6.792421281116133969e+00 -6.663101317404150450e+02
-5.035730399026763138e+01 1.578300538823376975e+01 -6.666410686464730588e+02
-3.582556872417720584e+00 4.846168786409386797e+01 -6.616079279694363322e+02
-3.902307358436540596e+01 4.802152321161446480e+01 -6.589200818434948133e+02
-3.128175424464001964e+01 4.153291229628464976e+01 -6.679463646527910896e+02
-7.793468059606082932e+01 -6.818422741652919683e+01 -6.672481960762340805e+02
-8.213744912391454989e+01 -6.896402694724770299e+01 -6.634607542251972063e+02
-1.015347557068097473e+02 -6.286897182686347207e+01 -6.645430998006693244e+02
-1.101626657129904601e+02 -5.455964920229196480e+01 -6.641556224140866789e+02
-3.649056542473353915e+01 -2.357525432911908680e+01 -6.645085315383674924e+02
1.170528295209781078e+01 -1.847623070119351141e+01 -6.692567726756471984e+02
1.344302512317291232e+01 -2.182741676733878933e+01 -6.609125106306622683e+02
-2.852208165712377053e+01 -4.660582635958565589e+01 -6.728258409597796117e+02
-2.148452332785623042e+01 -2.385737045411231705e+01 -6.724547259382220545e+02
-1.985114033351213081e+01 -2.461387431924638136e+01 -6.675584371681237599e+02
-3.582761558732079266e+01 -1.516256106548212124e+01 -6.662109617736557539e+02
-5.036154248517832599e+01 -8.734350722729351091e+00 -6.650720992475448838e+02
2.257893141804758486e+01 2.668826290385432287e+00 -6.667010456480362564e+02
2.317993173717832889e+01 1.103693415049536419e+01 -6.676095033885053454e+02
-4.663213980571794082e+01 1.779932471065986732e+01 -6.720289760342961927e+02
2.124039210591632809e+01 2.597344281869120763e+01 -6.672243150158072922e+02
-1.237371882688177038e+01 4.365019489720856427e+01 -6.660556154084729314e+02
-7.225374375463459842e+01 -6.968535299711481912e+01 -6.643921947534810215e+02
-1.080370614341696012e+02 -5.495790830381890402e+01 -6.663097362308832317e+02
-2.158281246301026712e+01 -3.652409136934637957e+01 -6.673440500217199087e+02
-6.359063405056052609e+00 -2.666363041522910038e+01 -6.749868378878678641e+02
7.731522817076461607e+00 -2.440563924566870213e+01 -6.665458921348790682e+02
-3.716871427091076896e+01 -1.394697236565166598e+01 -6.669287014611503537e+02
-4.603160544315938552e+01 -5.122775914422479815e+00 -6.648984155066818857e+02
-5.732375825496372812e+01 -1.601259908473655347e-01 -6.667398433329049112e+02
-2.612357636362584756e+01 3.846498224705537439e+01 -6.715894468482813409e+02
-9.902130869076735564e+01 -6.141590976938173441e+01 -6.673470926878993623e+02
-1.037145945597490879e+02 -5.712460881875485086e+01 -6.683804879977086557e+02
-1.016970112937439552e+02 -4.716766028936225297e+01 -6.709227775563492742e+02
-1.031484250906273559e+02 -5.272112032401003745e+01 -6.703767063481642481e+02
-1.065631535463135720e+02 -4.692580680029710294e+01 -6.666588610211836112e+02
1.702385235488272386e+01 -9.353649493936448067e+00 -6.692943426714847419e+02
-4.983380750237830625e+01 -6.565460030588767815e+00 -6.689506068375841323e+02
-4.844495991062110107e+01 -5.307972955180657593e+00 -6.734479084244396745e+02
2.058791897648682223e+01 1.877841006698226423e+01 -6.699427891462082698e+02
1.565402236178545614e+01 2.704163611040086224e+01 -6.710053807403569408e+02
-6.049183266893033561e+01 -6.358526816359225364e+01 -6.749566312146355358e+02
-3.801009046522584356e+01 -2.111186583622756530e+01 -6.702686753857991562e+02
-3.964652586104615040e+01 -9.928714089910396723e+00 -6.715374286198026539e+02
-4.443804361136403003e+01 -3.045744743081435502e+00 -6.722350293706446109e+02
-6.543152499664572019e+01 1.606037039163091151e+00 -6.732746312422527808e+02
-6.135384006256210654e+01 3.768677618778842220e+00 -6.721529448968165070e+02
-6.833012339512669087e+01 1.761097898139255546e+00 -6.682999802176645971e+02
2.029273514785446153e+00 3.591105640321796244e+01 -6.707497908533507598e+02
-6.981240360602581063e+01 -6.590321968298492550e+01 -6.722024311722465200e+02
-9.819820574566212201e+01 -5.418513841555251531e+01 -6.730645454100000507e+02
-9.271422552039000209e+01 -4.441167844360759887e+01 -6.755981657333810517e+02
-2.499992328090437255e+01 -3.607810102997949997e+01 -6.715773748410149437e+02
-2.007526519522988551e+01 -4.010961157235254149e+01 -6.668181635666491047e+02
-3.178348127669836742e+01 -2.817689752164972461e+01 -6.693924359239805426e+02
-9.353412855757838429e+01 -2.730410610012710393e+01 -6.658814898311750312e+02
-8.796115879228133849e+01 -1.961400773097430772e+01 -6.659632185063854877e+02
-7.940644421940274356e+01 -1.099720736933498166e+01 -6.688113261497209123e+02
1.765085872098367048e+01 3.960983474885400035e+00 -6.728805695414426964e+02
-5.617236546270039810e+01 2.053926000873564472e+00 -6.724798481132498864e+02
1.597315567752620424e+01 1.284643758493111498e+01 -6.752303528393099441e+02
1.023477363757533709e+01 3.413838379272006307e+01 -6.691915685167344918e+02
-4.094346462214483040e+01 3.919188539107646108e+01 -6.650693802533658072e+02
-3.458022113753903426e+01 3.073558503050178103e+01 -6.760242360811502067e+02
-7.971389837688451507e+01 -6.433075978232166392e+01 -6.720875415302188003e+02
-5.612053505503546802e+01 -6.539218971900116628e+01 -6.686264833913247685e+02
-4.826505804979562697e+01 -5.570155249020357502e+01 -6.795420523422411634e+02
-2.775575448226403807e+01 -4.317288629916980369e+01 -6.746762478213498753e+02
-2.866936258084402311e+01 -3.482759678994208485e+01 -6.748680659196116949e+02
-3.875055755458185303e+01 -1.902725794742612919e+01 -6.749708958624431716e+02
-4.208617704457924447e+01 -1.479301904238133147e+01 -6.718183831068960217e+02
-4.264751239279340211e+01 -1.038399810652061284e+01 -6.768114787997719759e+02
-6.867915238449687365e+01 -8.789168431747850008e+00 -6.788599745947773272e+02
-6.416251924208526702e+01 -3.054349784132143419e+00 -6.796110074036423612e+02
-5.588173875034500071e+01 2.001230344293038144e+00 -6.743003396076506988e+02
-3.601299541224981482e+01 3.785174208367497073e+01 -6.694592038910988094e+02
-9.888034117102117193e+01 -4.179929776733386859e+01 -6.706415471191456845e+02
-8.610108838146850019e+01 -3.191850347358543516e+01 -6.746114641580290936e+02
-3.487900189014498409e+01 -2.631552107955489817e+01 -6.737429803884411967e+02
-4.219826704497977943e+01 -6.143353111016105039e+00 -6.746373315136959263e+02
-6.970319616347632063e+01 -1.410994756239193793e+00 -6.719134443985219605e+02
-5.250747991911614321e+01 -9.560423400495143831e-01 -6.736602910851473780e+02
-4.791707639132008012e+01 1.100473957360671662e+01 -6.719824573383044708e+02
1.347289173616754177e+01 2.237135225091031288e+01 -6.745146365222815348e+02
-4.018067417607707625e+01 2.904910214956496972e+01 -6.727072672537678955e+02
-3.027073681136107197e+00 2.905495587277649605e+01 -6.777735170907500333e+02
-5.348187526988815499e+00 3.895547434585885327e+01 -6.697740115979200937e+02
-8.843146476407019563e+00 3.537332755504985471e+01 -6.736431985495182744e+02
-9.302328375128477944e+01 -5.708748232276271750e+01 -6.738110066794840805e+02
-3.845897665701940582e+01 -5.309129976578243060e+01 -6.752874303758513861e+02
-1.779091576815022080e+01 -2.482636831312553483e+01 -6.814232814310090589e+02
