-8.197830296228456604e+00 3.466466927212371729e+01 -4.365024658128975261e+02
-8.703568127860695114e+00 3.467704707970730738e+01 -4.368363058937091523e+02
-1.255636923876409350e+00 3.418867864472206008e+01 -4.442498463627144929e+02
-4.405393500446029620e+00 2.993970070047743093e+01 -4.315303674964001175e+02
-1.431913057366970676e+01 7.567318873263596757e+00 -4.071550906920207353e+02
-5.744200174767110312e+00 3.028667135102709551e+01 -4.306607177662276627e+02
-8.295739234439142962e+00 3.453447362469086102e+01 -4.377626345566441159e+02
4.830176493336802324e+00 3.381839529382025233e+01 -4.495005013423742071e+02
1.777545891428870872e+00 2.546930588030325282e+01 -4.356530982473552172e+02
1.914607912875271101e+00 2.582502296729664337e+01 -4.348461046492529363e+02
1.247109305021868764e+01 2.696801969848987213e+01 -4.444863288212648627e+02
-5.673976326752412547e+01 4.092480506578360888e+01 -3.874245076302623829e+02
-5.689526720644490609e+01 2.940439652888355582e+01 -3.867497329189543507e+02
-7.374543551485570170e+00 2.994203655140020004e+01 -4.283252814191344555e+02
-6.648841937289017956e+00 3.023154484667207242e+01 -4.296272006187330135e+02
-5.648670507000018937e+00 3.462740568377786587e+01 -4.385802800338075258e+02
-5.706872512197072922e+00 3.415492667805456506e+01 -4.369135986913978513e+02
-8.214323898315669226e+00 3.051331648597437152e+01 -4.278448971466556827e+02
-6.618066962417924515e+01 3.542660161411333064e+01 -3.889201077193276319e+02
-9.611867252506709036e+00 3.443656484924633077e+01 -4.364252755873878868e+02
-3.977009103949924906e+01 2.503977600212837729e+01 -3.871410490924088776e+02
3.316985890878066723e+00 2.608965426080108330e+01 -4.358567344487665878e+02
-5.751477912773609091e+00 3.314333202791042510e+01 -4.348315344393406576e+02
-1.001830753430933463e+01 3.313924344966231672e+01 -4.363480701540641462e+02
-3.576971983459452531e+01 3.066706371532566067e+01 -3.877897438399049861e+02
-4.570040515444149065e+01 6.262581944186672445e+01 -4.065337467754818022e+02
-9.440454367453654516e-01 2.573907577220033360e+01 -4.334552028053807362e+02
-3.712563407488084444e+00 2.907534765284076883e+01 -4.312462264522285977e+02
-1.755526488638800675e+00 2.812858259921780402e+01 -4.322366724113072678e+02
-1.936131739142646468e+00 2.584831288141934280e+01 -4.336837234513520798e+02
1.009473497678724208e+01 2.479840148173271430e+01 -4.444539642700501645e+02
-4.272402365085430809e+00 2.754641940035707748e+01 -4.296222081168231739e+02
-4.964816852581134476e+00 2.674476653432899909e+01 -4.287510075466421426e+02
-5.161025096209029606e+00 2.630694148777551788e+01 -4.288247818589468920e+02
-5.861094978474020678e+01 5.445381993068601645e+01 -3.998332485314046494e+02
-6.014711786484647327e+00 2.570873080465689142e+01 -4.282167584972458485e+02
-4.339631577908692250e+00 3.473688172549315567e+01 -4.405616638761059676e+02
6.335891472139659975e+00 3.159764400710554710e+01 -4.443920789531873652e+02
7.927482930083542989e+00 3.171687526909906296e+01 -4.462190842765447769e+02
2.142055407734951178e+00 3.402523388324814135e+01 -4.447809076409963041e+02
-9.299432222677793902e+00 3.230947442635758904e+01 -4.366273211769217824e+02
-8.921850408145303390e+00 3.295655391813880186e+01 -4.373023799699211054e+02
-4.430278514048291427e+00 2.713016551625077000e+01 -4.349916206846077671e+02
-7.081112210170461552e+00 3.368951584497639828e+01 -4.392515790906302868e+02
-5.800029461467991254e+00 3.147394208062951648e+01 -4.321239976065708674e+02
-7.071083333120466108e+00 3.198873538307122288e+01 -4.315864838595532547e+02
-7.144595036781280939e+00 2.814857676001284759e+01 -4.263061518428665408e+02
-9.776604470538615033e+00 3.427024101010999146e+01 -4.323091563007845934e+02
1.128423749068516102e+01 2.941410317359249760e+01 -4.534900074828220227e+02
-9.005305545656497657e+00 2.941805293854122638e+01 -4.343469633180690153e+02
-9.647472402204718023e+00 3.042960864623073292e+01 -4.348778750641486681e+02
-9.586027003398800872e+00 2.901125903787927740e+01 -4.335519208604093819e+02
-8.454642283142998593e+00 3.437721074719604530e+01 -4.351512961033094484e+02
-5.327505636180520199e+00 3.076979204998256279e+01 -4.316353569785529203e+02
-2.131171097358545818e+00 2.599705483011548068e+01 -4.318596419745887829e+02
-1.028384685123709286e+00 2.621217625063405876e+01 -4.323573132111903305e+02
-2.332046157611468828e+00 2.662681640606385614e+01 -4.311303408171883120e+02
-4.343355689626030802e+00 2.637936358132751380e+01 -4.327117539107123889e+02
-6.244310208114222860e+01 3.604382742230943393e+01 -3.873406004837448791e+02
3.388081068247104533e+00 1.021154817440970497e+01 -4.006763342059483080e+02
2.935478854627637801e+00 1.126002920954825370e+01 -4.019401614871403581e+02
3.300301091785975416e+00 1.015699469415933009e+01 -4.020842265446565875e+02
-2.680557771734064332e+01 1.556077217162545345e+01 -4.040228482276549471e+02
4.396730830815205771e+00 -4.309023787959795904e+00 -3.778508526125878575e+02
-6.125346870037367353e+01 2.449761686519795845e+01 -4.052602475434340477e+02
-1.126656768594413016e+01 2.371116231803892660e+01 -4.059695584710120784e+02
-6.441465241859150126e+01 2.640417095900481215e+01 -4.036454507773028126e+02
-7.141836319521537746e+01 3.919881698671478176e+01 -4.026098149512830560e+02
-6.948781204211111628e+01 4.665404363101558260e+01 -4.086768163098912510e+02
-2.658187534825333387e+01 5.485083469602486872e+01 -4.080144148364355488e+02
-5.724250862058018186e+01 5.909626912392705123e+01 -4.077699395556491595e+02
-2.852326835084842571e+01 5.135786724036292838e+01 -4.041291871048752569e+02
-2.994162583629651664e+01 5.714716583831863517e+01 -4.066045935568326399e+02
-5.007137408608146245e+01 5.901609104915201698e+01 -4.016588547404439282e+02
-4.315325381849319797e+01 6.075583892683336984e+01 -4.030874469663485797e+02
-2.388489190959143826e+01 4.850052612354218695e+00 -4.098070479002885236e+02
-4.919781175221948644e+01 2.020134188708565759e+01 -4.054276379354990354e+02
3.563157855016373610e+00 1.487643931806486641e+01 -4.075880026548065871e+02
-5.917572424331439862e+01 2.310608196799518410e+01 -4.084142633655588384e+02
-7.027103218512708338e+01 3.255423714855793804e+01 -4.088798745019281569e+02
-2.684969767272216856e+01 5.737304390029098755e+01 -4.097389102272195487e+02
-3.227256998045947967e+01 6.016973134671835766e+01 -4.078297657890851156e+02
-3.727699851949961385e+01 6.199306358428659536e+01 -4.072898539073678990e+02
-3.618854659373031524e+01 5.993575111183339033e+01 -4.046696631339883652e+02
2.661786031968885524e+00 2.318153595078306317e+00 -3.988839545077450452e+02
3.900036225802683276e+00 1.949051133486147780e+00 -3.973118296189626903e+02
-3.051002088510723098e+01 1.157942398823257868e+01 -4.070795578786042483e+02
-3.596989292804877181e+01 7.897434966381955412e+00 -4.109862257712323981e+02
1.018435782894429664e+01 -3.181600734541601749e+00 -3.787522422775939503e+02
8.910038124633446799e+00 -4.669474401394325902e+00 -3.791669214349147978e+02
1.161287092766042051e+01 -4.289328061273050885e+00 -3.796712912765796659e+02
-3.785648102829218686e+01 1.466431015902282020e+01 -4.085684875581789584e+02
6.720712691154451690e+00 4.953763231417516621e+00 -3.951161635102845366e+02
-4.975260205067471730e+01 1.967830449815126670e+01 -4.093126358094660873e+02
-5.645639633444699967e+01 2.163836425122479312e+01 -4.107100841553868236e+02
-5.013419244804814490e+00 1.978677529735259100e+01 -4.063458457626581435e+02
-6.153732129517436533e+01 2.387882555696056386e+01 -4.108424698690907917e+02
-6.831002306468424479e+01 2.954563300825579830e+01 -4.074104534131509467e+02
-6.958152426461052187e+01 3.114630299480962350e+01 -4.051047951785663486e+02
-7.071071383865192672e+01 3.378767861831776287e+01 -4.112890933880568127e+02
-7.136017456338156251e+01 3.826135232319894897e+01 -4.112967055301450046e+02
-7.078989906700573442e+01 4.269873502820200883e+01 -4.074585996278263451e+02
-2.559161257252892341e+01 5.308528558463832780e+01 -4.089960928141394447e+02
-3.433384633222377147e+01 6.160658938623421221e+01 -4.091354328279797414e+02
-3.970457524964639617e+01 6.353450077224186288e+01 -4.096038848528548897e+02
-1.443596326366383842e+01 1.801984201631603000e+00 -4.133922535478294549e+02
-5.622271479993491639e+00 5.588829322843475111e+00 -4.073982931150662239e+02
5.885325383803920118e+00 -5.695751617162130742e+00 -3.789363676603956037e+02
-3.411683235275953763e+01 4.659425485423303925e+00 -4.123817316039769594e+02
-2.285782789519680946e+00 5.103320901496785744e+00 -4.099720879770610509e+02
-4.188910269669005970e+01 1.503429666510265506e+01 -4.105366080516810143e+02
-6.802471837543740207e+01 2.892625111141849814e+01 -4.114036544588806237e+02
-7.141501868420660060e+01 3.774691155473447424e+01 -4.068084556565358412e+02
-2.188745424479004953e+01 4.307481041790001086e+01 -4.109263416318781879e+02
-4.145656421071760178e+01 6.331754898110332164e+01 -4.081780703283205867e+02
-4.441797488037988018e+01 1.390927741406791185e+01 -4.128658390298531913e+02
-4.080406024134057219e+01 8.641206057977999677e+00 -4.132521450428156982e+02
-5.696111465302787558e+00 1.160133551505029637e+01 -4.001389801441172267e+02
-5.474187325433452855e+01 2.084106515299583506e+01 -4.122656078267604016e+02
-6.476012050698146538e+01 2.597890344401322338e+01 -4.105832708733837535e+02
-1.408285714741153072e+01 3.028482008857410079e+01 -4.130869216096250511e+02
-2.268730623848825090e+01 5.601668170273251235e+01 -4.194792994441184533e+02
-2.484904001843679566e+01 5.775020270544023759e+01 -4.142759476713604840e+02
-2.987485089515543990e+01 6.011012755922402562e+01 -4.101427617712960227e+02
-3.373451718602473903e+01 6.244497439493469670e+01 -4.121601747578906156e+02
-4.970740827873960654e+01 1.924689329616111877e+01 -4.118543899504235242e+02
5.797218824660890668e+00 1.442268334645640060e+01 -4.109222173387426551e+02
-6.599637093398411025e+01 2.675669181831199595e+01 -4.132603378023511596e+02
-7.110723185013739567e+01 3.749598707788269536e+01 -4.137311112179441466e+02
-2.150651835056741845e+01 5.254074768998517442e+01 -4.198256033275939103e+02
-6.202762774690203429e+01 5.636882658480813291e+01 -4.092034368851356589e+02
-2.747726696493886678e+01 5.929634114500125719e+01 -4.119972850358541905e+02
-4.946117783274037549e+01 6.460670474094776239e+01 -4.139534325067558598e+02
-4.643352814632410031e+01 6.356901726785385875e+01 -4.093466279038585185e+02
-2.966817420335346611e+01 3.468241400389926454e+00 -4.118531129511661106e+02
-3.400941764161077430e+01 1.165006381608841624e+00 -4.157996109664835558e+02
8.743543213489699539e-01 -6.239067701958198597e-01 -3.822975847657441477e+02
1.292809767851294644e+00 -2.452296638833728171e+00 -3.817815537471760194e+02
-4.292300460551483354e+01 7.727147310654606471e+00 -4.150879579289571666e+02
5.135017743031079718e+00 1.031711589858967670e+01 -4.169877065602139510e+02
-4.200503118574775385e+01 6.457459924217042158e+01 -4.122863988067473997e+02
-4.386931070986107528e+01 6.508529592672061881e+01 -4.146785805130895142e+02
-1.467561446309612094e+01 -3.259740105511114150e-01 -4.190607820480176429e+02
-6.131719553952933666e+01 2.360619381359725821e+01 -4.133735703384269868e+02
-6.970200052692921133e+01 3.174494352659866792e+01 -4.136911203365161214e+02
-7.038638331610222565e+01 4.195922464490373471e+01 -4.180963127864290527e+02
-5.246411452046887547e+01 6.235902903233971273e+01 -4.097872765055105333e+02
-5.260678542227990562e+01 6.413849392268240024e+01 -4.145353223490994878e+02
-5.560113313218282372e+01 6.460666083843938168e+01 -4.192450354114023980e+02
-3.992434185197132734e+01 6.461481968224369155e+01 -4.158754914233213640e+02
3.493242087553943165e+00 8.204258624756826990e+00 -4.134844014126426259e+02
8.031510378517147331e+00 1.314424822552038563e+01 -4.137303092457082130e+02
-3.672768759351257017e+01 6.358806038593822052e+01 -4.140847827248187514e+02
-2.773243383111772786e+01 -2.497920061730364072e+00 -4.186621667230457433e+02
-2.665272325861339198e+01 1.871812343345781171e-01 -4.147767205607428878e+02
-4.889065669028737915e+01 1.860437991741638442e+01 -4.144921624419168324e+02
-5.508738577928600932e+01 2.064970775502408173e+01 -4.157392326220847849e+02
-5.202362310868965523e+01 1.743749969571797109e+01 -4.180490671321049376e+02
-1.640667531966337189e-01 1.827577509551257506e+01 -4.177083968708462294e+02
-6.704566187513810860e+01 2.777333500022651691e+01 -4.162885070249205341e+02
-6.641141188714799171e+01 2.712139523899917037e+01 -4.184108006484973998e+02
-6.267163540492122564e+01 2.420058005622900765e+01 -4.161102461030670270e+02
-1.711341824768130593e+01 3.648003084461878842e+01 -4.154491008226890472e+02
-7.062331421638171491e+01 4.265796121306494371e+01 -4.139777799348503322e+02
-5.975897936156783175e+01 6.027340038781486697e+01 -4.144733436320155988e+02
-2.939619112850764182e+01 6.179719633961574488e+01 -4.140487080488642277e+02
-3.239300264058655188e+01 6.298836459013561040e+01 -4.156521668401933880e+02
-4.792390672232901494e+01 6.610187756515924207e+01 -4.191940105895356510e+02
-3.478461789538449977e+01 6.443653590056443647e+01 -4.196992789044340952e+02
-4.363929826575040494e+01 3.318839689230480339e+00 -4.187762678251324360e+02
-4.336103774129913546e+01 6.002725810421190467e+00 -4.169263471818161406e+02
-4.989616378056003043e+01 1.606251784623887247e+01 -4.166607076989262737e+02
-5.899902511247930903e+01 2.202522528473232200e+01 -4.187539413389339416e+02
-6.894759054411680665e+01 4.814905664394031959e+01 -4.114846651043461065e+02
-2.087651562779194236e+01 -1.341048199346577707e+00 -4.178761849845449774e+02
7.461829848680229915e+00 6.643425789095270595e+00 -3.889207982601574258e+02
-4.974318157324367462e+01 1.163086578616502464e+01 -4.183855072151362151e+02
-4.865172776367458596e+01 9.132820836615756832e+00 -4.191725440799871762e+02
-1.996956340947999209e+01 4.660713538453288862e+01 -4.188312904800720844e+02
-4.117957393812277189e+01 6.547534945225086744e+01 -4.194183426816365454e+02
-1.932952104842163621e+01 -2.966095117302184114e+00 -4.215351389110759897e+02
-4.393372791737603933e+01 2.891555957004848798e-01 -4.217403208940990567e+02
-5.633689273481471815e+01 8.831518448492378326e+00 -4.236863707255699296e+02
-9.464788667326242688e+00 2.309336993095401525e+00 -4.221801875998919513e+02
-4.670134934364996582e+01 4.282455087142373884e+00 -4.202070059182590285e+02
-5.250891243974515277e+01 1.290574887654864789e+01 -4.198217289047455552e+02
-5.851886890579632450e+01 1.736086561455570276e+01 -4.242364698071373255e+02
-5.779858508609802215e+01 2.114481146216353125e+01 -4.208626109799659503e+02
3.896306079859095384e+00 1.529880870984414898e+01 -4.170877257513986365e+02
-1.461563219973868732e-01 1.713090708236356008e+01 -4.211527875161690986e+02
-3.756512093871316793e+00 2.140237748997141409e+01 -4.185483468992558755e+02
-6.636261549083788225e+01 2.678622210791746028e+01 -4.246045790892147807e+02
-6.887282390780049468e+01 3.303494566522622478e+01 -4.245513568675489751e+02
-6.931888074146216638e+01 3.174413858432449231e+01 -4.175407301816653103e+02
-6.489930758207158590e+01 5.621140920895227566e+01 -4.176932376371370310e+02
-6.359533087658778072e+01 6.045208770785236396e+01 -4.243824335574311704e+02
-3.054787895371231699e+01 6.367961915680754004e+01 -4.195476118856596486e+02
-2.709973096941184068e+01 6.183384381692042808e+01 -4.191539922567996541e+02
-2.524551119134535071e+01 6.113977963078561118e+01 -4.210066938045370648e+02
-3.809221038615427801e+01 6.503295509921673556e+01 -4.206877616783339704e+02
-3.141048678662156846e+01 6.404298254081618325e+01 -4.207449252763435652e+02
-4.939889710611718954e+01 6.651831986866011448e+01 -4.213718053789664282e+02
-4.476799855516591009e+01 6.603536698742691158e+01 -4.208930291167886253e+02
-3.918933912867348823e+01 -5.716814578835402116e+00 -4.257266485275621903e+02
-3.499401698231963564e+01 -1.394616757694777665e+00 -4.190448019158912984e+02
-6.205093712735157396e+01 2.371454588610340153e+01 -4.183751723256809782e+02
-6.957195995304732605e+01 3.793407826485425716e+01 -4.245648705350367891e+02
-7.044625508967220640e+01 3.669764799125596966e+01 -4.179477842177674347e+02
-5.950212754077656996e+01 6.363907908542003611e+01 -4.223254947195192130e+02
-5.207299328187219345e+01 6.567823373912190732e+01 -4.194218821883060855e+02
-3.159496460219822467e+01 -4.349658360143388691e+00 -4.216070652573714597e+02
-2.237870208265935901e+01 -8.093976097955213334e+00 -4.284041798244144275e+02
-5.152865753671113680e+01 1.213092093527908366e+00 -4.246287672809785363e+02
-1.771638561956176972e+00 6.881477795639005635e+00 -4.202341521701319493e+02
-3.059405959120615748e-01 1.299258353163477331e+01 -4.233012124872304298e+02
-2.462817549403525152e+00 1.966862947503834391e+01 -4.219767820548353825e+02
-4.829051436544546938e+00 2.231336186407853006e+01 -4.233456721432487484e+02
-2.020189550140489843e+01 5.365970588694093379e+01 -4.258731125497907897e+02
-2.374858392265947060e+01 5.853973335145023782e+01 -4.192358205850518971e+02
-2.771987136050810108e+01 6.262284287208755984e+01 -4.241062714433933820e+02
-3.420222671619826826e+01 6.445393814196819449e+01 -4.260877763908014231e+02
-2.454975956658774550e+01 -5.135318494787579624e+00 -4.229890328017439742e+02
-5.092618606013845195e+00 9.450006241734131507e+00 -4.273894931990460577e+02
-6.445434118910436716e+00 5.086944978491573899e+00 -4.228836011189445117e+02
-6.404357469131069536e+01 2.451165273819709611e+01 -4.236974291116282529e+02
-6.301552389682651523e+01 2.300213513819549505e+01 -4.284973223287877317e+02
-6.701752031985208191e+01 2.841702499415144345e+01 -4.281733721448551364e+02
-6.901033682697668326e+01 4.343268577227622274e+01 -4.272280647450987772e+02
-6.432752711243406907e+01 6.236401536956010005e+01 -4.328881978750839608e+02
-2.383470394284124083e+01 6.009205853742389536e+01 -4.249705055227366302e+02
-2.597776406286008921e+01 6.180785860021291001e+01 -4.266041030347234368e+02
-4.735544780939152787e+01 6.660848490779210351e+01 -4.252354805211054440e+02
-5.601223120109369091e+01 6.624661590725490612e+01 -4.245276926935005690e+02
-1.553099874278915848e+01 -1.831020278173312033e+00 -4.230600701347470931e+02
-1.753800010901109374e+01 -7.589704966518991291e+00 -4.304633961254120891e+02
-6.030175968983885326e+01 1.120224154486661838e+01 -4.264267323141154975e+02
-6.057301656065440199e+01 2.172408736616070613e+01 -4.259114220979834045e+02
-2.920402404876547564e+00 1.304307433341790734e+01 -4.259058408681330548e+02
-3.524326927171547386e+00 1.580413142678437133e+01 -4.253637035516406399e+02
-6.255388969124687115e+00 1.716719149717896897e+01 -4.283097276785050553e+02
-5.684582263905347155e+00 1.927137444798476906e+01 -4.268966240215864332e+02
-6.776226703034664922e+01 2.941757436599902320e+01 -4.244129878661371436e+02
-6.898005736155182888e+01 3.737214094932654973e+01 -4.274871628002312605e+02
-6.917783185193336237e+01 4.559077996993480753e+01 -4.247735400249944178e+02
-6.871198678211980848e+01 4.829161187164561397e+01 -4.226022939715491589e+02
-6.262707967912307083e+01 6.587036502254298398e+01 -4.347105947804286643e+02
-4.293909476221868005e+01 6.587901310717164449e+01 -4.256365241994417943e+02
-2.966698589622579618e+01 -7.036954531288078130e+00 -4.252147107875285315e+02
-5.364492879769213829e+01 -8.497973638762907900e-01 -4.275003544047062292e+02
-6.554291487050387843e+01 2.533734281579032555e+01 -4.291149412874953555e+02
-3.449345988093797644e+01 6.460394636046146388e+01 -4.281781952193483107e+02
-4.413492006691427605e+01 6.616325844247657528e+01 -4.276165765967955394e+02
-5.222756336497908336e+01 6.706722801843328341e+01 -4.254431628886356407e+02
-4.673248958956404664e+01 -4.216032082417090265e+00 -4.277454419178527019e+02
-5.352705379371024463e+01 -1.873154546195686887e+00 -4.292943236408670487e+02
-5.719142401454847402e+01 4.140583258340086559e+00 -4.268097422000560641e+02
-1.226197771932625535e+01 -5.225052011556303722e-01 -4.262356168356336639e+02
-1.890245681471348149e+01 4.026189350433132574e+01 -4.162117090953956335e+02
-1.732959333311556449e+01 4.911347819419855654e+01 -4.295068896793018212e+02
-1.943702716791315410e+01 4.956593706583142023e+01 -4.242100511178804823e+02
-2.216779022884599826e+01 5.803642653909999183e+01 -4.261378026563484696e+02
-6.173005237404471046e+01 1.033705044356551639e+01 -4.315988436864567461e+02
-6.162703890030656595e+01 1.798802224807251449e+01 -4.291955439709853977e+02
-5.335206689831038851e+00 1.315463399714832882e+01 -4.300093980180615176e+02
-8.893798476055449598e+00 1.878255999143836164e+01 -4.305982712770486955e+02
-6.562666412322128906e+01 2.577796803216540056e+01 -4.306343892631100516e+02
-6.815925949820716312e+01 3.333849521035754293e+01 -4.285034358451227945e+02
-1.927279127085999377e+01 5.370946969450976383e+01 -4.303368342515549898e+02
-2.360899219954520589e+01 6.023071774474427542e+01 -4.298997702914933825e+02
-2.822231137891373365e+01 6.279431228115592489e+01 -4.301334611196942888e+02
-3.950510595114411672e+01 -7.528651905035558478e+00 -4.290460404476709755e+02
-3.131359001496573669e+01 -1.046517403922843314e+01 -4.348059145276970412e+02
-2.863832518556240103e+01 -9.088908717024697381e+00 -4.290640338457751568e+02
-4.578234324091065588e+01 -5.972675499260875931e+00 -4.307080131326101196e+02
-6.178921465526189394e+01 1.252440321015714808e+01 -4.286422774277504004e+02
-6.630991786600675653e+01 2.817736958707200046e+01 -4.307756570480462415e+02
-6.771500803624205389e+01 3.548107164363062083e+01 -4.315914725483740426e+02
-6.746394384430030300e+01 4.318413560846418875e+01 -4.344380978965419331e+02
-6.748635668506720720e+01 4.913435808928251447e+01 -4.333948752060156835e+02
-2.928282357650061485e+01 6.325779969027015426e+01 -4.277630035513799953e+02
-5.892332419149441591e+01 6.631169498582896438e+01 -4.282488784293820459e+02
-4.436018296396442651e+01 6.642353572114875249e+01 -4.295831365265210025e+02
-3.587729383030013963e+01 6.491389347157257816e+01 -4.309080377494398135e+02
-5.136985516293970022e+01 6.760448067995272936e+01 -4.284425824563050469e+02
-5.520670200217363544e+01 6.768847190023895166e+01 -4.302564802407035813e+02
-1.509628598373750208e+01 -8.615675467954657663e+00 -4.331033019496430256e+02
-1.502772919256510065e+01 -6.167805134154729529e+00 -4.313466141389476434e+02
-5.626334112474441440e+01 1.650447937316321667e+00 -4.318288057301963931e+02
-5.959412253146009419e+01 5.472164400420085784e+00 -4.293679465510746809e+02
-6.495447914146193824e+00 1.170915359193991456e+01 -4.345945877606579302e+02
-2.151038234520931169e+01 5.753881740569099890e+01 -4.295126783425515100e+02
-2.301013151633870990e+01 5.953491919145739786e+01 -4.312810774315549338e+02
-5.025455857333366083e+01 -4.523297801022593490e+00 -4.314867019090344229e+02
-9.403578526905615576e+00 1.471214362108983043e+00 -4.329304686250770260e+02
-9.059117866834462518e+00 3.981238391854440284e+00 -4.308426550520629803e+02
-6.262294668920072915e+00 1.364102155825792195e+01 -4.323350400066618704e+02
-1.121071438478715798e+01 2.026689052468573493e+01 -4.333654981024978952e+02
-6.507177414954908556e+01 2.666668458311685797e+01 -4.328163085826295742e+02
-1.486473148220702001e+01 4.307580453887580063e+01 -4.287884834798828138e+02
-1.970403693833270964e+01 5.456942925788086285e+01 -4.313948975114489599e+02
-3.356008503105372398e+01 6.441502096525424292e+01 -4.319999838625958546e+02
-4.539926386838575212e+01 6.668783791563339491e+01 -4.312391394721680626e+02
-4.518756464680412677e+01 6.665695053575416296e+01 -4.334627178188341077e+02
-5.044215260923843402e+01 6.780547629101950236e+01 -4.322817833486900554e+02
-6.075235256842239551e+01 7.050484687852422994e+00 -4.311917622429145922e+02
-6.816162438431518034e+00 9.294754939685747175e+00 -4.369622675575237167e+02
-6.093387272617104600e+01 2.149697207927396292e+01 -4.326869975793751451e+02
-6.203208008896628911e+01 1.682676315161284819e+01 -4.314458849395996936e+02
-6.288306779034237337e+01 2.291204521032969410e+01 -4.313879016600284331e+02
-6.328789630931295562e+01 2.392660645734795466e+01 -4.328590581932356827e+02
-9.890389443737488406e+00 1.714249010875403201e+01 -4.363465239585144673e+02
-1.512547358578156498e+01 2.337618693029270034e+01 -4.360042163311811123e+02
-1.870510144128185104e+01 2.740886372034247742e+01 -4.379499176087227852e+02
-1.686614671739172522e+01 2.818541380107913952e+01 -4.348481466702522766e+02
-2.354079862972149684e+01 3.293855708708734653e+01 -4.366436134105504721e+02
-1.729662864029208791e+01 4.636667645608108757e+01 -4.357795713474042145e+02
-1.620609124198186635e+01 4.666863928412268336e+01 -4.315233461276387175e+02
-6.681113600146147746e+01 5.372368459347197955e+01 -4.327813261746533158e+02
-1.839673732105873327e+01 5.101743450944716329e+01 -4.321838345762207041e+02
-2.050483134717883971e+01 5.429614634826413067e+01 -4.338956738714485937e+02
-2.319625096823845922e+01 5.823571253104213952e+01 -4.335068099785084996e+02
-2.558589571711134880e+01 6.149977809934780026e+01 -4.317371883016302263e+02
-2.837561352629671063e+01 6.201414462819714402e+01 -4.335542322866584755e+02
-3.502216572358850755e+01 6.438191707306268086e+01 -4.336687329622584457e+02
-3.862849700577336876e+01 6.485141631650856198e+01 -4.354127782190840890e+02
-3.834587869701239526e+01 6.534048462057512552e+01 -4.328437890128803929e+02
-5.092326764348718626e+01 6.791691981921647425e+01 -4.350854320758194831e+02
-5.408872416885164114e+01 6.823506202788392727e+01 -4.344910122106230119e+02
-1.524802550571209103e+01 -1.013476289317304335e+01 -4.346024434248284365e+02
-2.147521549433780663e+01 -1.196752729378075664e+01 -4.344879988191591451e+02
-5.146326611747783630e+01 -1.952979948983957659e+00 -4.335372387813773685e+02
-4.858596753102437305e+01 -4.960784837321126517e+00 -4.326338170342887679e+02
-4.088295062720157347e+01 -7.172105565095293400e+00 -4.341277150246904171e+02
-4.713549955222605803e+01 -1.246948705538432733e+00 -4.357730156290932655e+02
-9.647471829651193431e+00 -8.690548110118240244e-01 -4.351711126207720781e+02
-5.907309855540898269e+01 1.010376681048180281e+01 -4.335871609448984145e+02
-5.594691267723984396e+01 2.962871900777225953e+00 -4.332112484380244268e+02
-6.155105269298066162e+01 1.500193506197024007e+01 -4.327535859951806856e+02
-5.927894546641269358e+01 2.109841148673718791e+01 -4.341955806665919226e+02
-5.107863040082619221e+01 7.192009952095112624e+00 -4.364053298064799264e+02
-5.475299467061668679e+01 2.056080143543865191e+01 -4.367333795489288377e+02
-5.641578725484649226e+01 2.497955195720003019e+01 -4.385816207480481808e+02
-6.365150070410711436e+01 2.584346019339786338e+01 -4.341148569631255896e+02
-6.072924002903791063e+01 2.652630630336609130e+01 -4.366752809853756503e+02
-6.310298845753897012e+01 3.041479463177764941e+01 -4.365198910889292279e+02
-6.674223843785924259e+01 3.406380871485704631e+01 -4.329368426314539420e+02
-2.663688523145655651e+01 3.701790057400904743e+01 -4.374218322356755380e+02
-6.565816513790507258e+01 3.672864975053266789e+01 -4.368133474983805513e+02
-2.797108757707259485e+01 4.353442262711588029e+01 -4.380248544429643971e+02
-2.379886202221146618e+01 3.898186909255051802e+01 -4.364704759690324067e+02
-2.133320396132034347e+01 3.904849478706513111e+01 -4.362560959933334743e+02
-6.617115403982775490e+01 5.032509624492106326e+01 -4.409642585640160064e+02
-9.638939354311348851e+00 -1.162568448492699957e+01 -4.402053315706392027e+02
-3.923579245174039443e+01 -5.188005007505395838e+00 -4.380244872085621637e+02
-1.243540255081268420e+01 -1.151716424465822541e+01 -4.374388271177483034e+02
-6.965792084719614863e+00 3.718826785243392496e+00 -4.391981716642322340e+02
-4.386650175412902541e+01 2.362707129381703464e+00 -4.387110281566118601e+02
-4.985357481054343509e+01 1.864226605937858139e+01 -4.382190787823761866e+02
-4.621481930635275859e+01 1.301164188969882396e+01 -4.393571798052626605e+02
-6.519032645914961677e+01 3.262297275094584137e+01 -4.349077496626884454e+02
-2.110874523580323370e+01 4.405043565005357920e+01 -4.380121201466005232e+02
-2.346181826093989287e+01 4.130671748629623607e+01 -4.371209447999236772e+02
-1.917124868951391647e+01 5.039622543491936568e+01 -4.355416056489120820e+02
-2.190298878073837585e+01 5.258573360150028009e+01 -4.383479916066472128e+02
-6.528492211397799849e+01 6.094217383174883906e+01 -4.413925200997098273e+02
-2.895574170736331254e+01 6.055179192069194727e+01 -4.366815935697932787e+02
-5.844554507477698024e+01 6.830650174602558877e+01 -4.343527956339015645e+02
-5.983960893181946972e+01 6.899193692142968359e+01 -4.387727393224246839e+02
-2.257500617957632016e+01 -1.408494284675134800e+01 -4.407788484780076033e+02
-3.346859074801080425e+01 -7.960257990490120505e+00 -4.411258664494385471e+02
-4.500878850994375568e+01 7.773773426627966110e+00 -4.393504968761214968e+02
-4.154053666803577016e+01 5.756649230870209522e+00 -4.419882595950932682e+02
-5.927462966726509563e+01 2.919761859348552591e+01 -4.391064059013256724e+02
-2.313818197043024227e+01 3.143257373041750213e+01 -4.381569333822086492e+02
-2.656800335828492265e+01 3.417119509358417417e+01 -4.408068282114172121e+02
-2.709667818420209073e+01 3.535935993229933416e+01 -4.384305517348862509e+02
-2.937315351246284223e+01 4.104980532899973156e+01 -4.382230033757402339e+02
-3.401847109502295297e+01 5.127004721805514009e+01 -4.403987232654649233e+02
-3.197024714109698706e+01 4.680741486448462751e+01 -4.392405461525653436e+02
-2.294824466103469263e+01 5.615098991994600652e+01 -4.361269316690587061e+02
-2.680343877363287675e+01 5.696435721680013842e+01 -4.395428430448849326e+02
-6.402960927243216815e+01 6.640740897335048487e+01 -4.411199447321376397e+02
-5.250766660183616352e+01 6.770326333750409731e+01 -4.385847497952676122e+02
-1.543041662693130966e+01 -1.439296529621019616e+01 -4.395782097639665835e+02
-1.703961613982623646e+01 2.481156755443418049e+01 -4.384465775188481302e+02
-3.672324830694090991e+01 4.749154153578368209e+01 -4.400102755126275724e+02
-2.734250442688451344e+01 5.080196029353682263e+01 -4.406148842560820640e+02
-2.434766553412918455e+01 4.745940192166922600e+01 -4.393106217825248336e+02
-1.776673506835700778e+01 4.484781536097372623e+01 -4.367062887237988207e+02
-4.033035535087110901e+01 5.218787098757163534e+01 -4.406479535396046003e+02
-4.272154962709181802e+01 5.336395000543884493e+01 -4.420342174646456215e+02
-4.451759748404483474e+01 6.607449645432213003e+01 -4.360836952530423218e+02
-6.292545210562272473e+01 6.849496564592983816e+01 -4.428232560940479061e+02
-6.042846308028890689e+01 6.780821704264488403e+01 -4.348429874032799489e+02
-1.715771319783148385e+01 -1.583559790692747704e+01 -4.429524730639176369e+02
-2.369551147673129776e+01 -1.292952405037262409e+01 -4.364708396064328326e+02
-3.112463770382643702e+01 -1.058738667176786308e+01 -4.378291720921184265e+02
-9.162475649192774796e+00 -1.427254942733585885e+01 -4.429880184876047338e+02
-6.919331053167498524e+00 -2.381244303636268267e+00 -4.400450163170235669e+02
-1.142353020999613378e+01 1.883219057244916428e+01 -4.387494888852681925e+02
-5.053161715247011898e+01 2.135178727032608137e+01 -4.397621745876334103e+02
-4.795636678156197519e+01 2.275124034560924002e+01 -4.432912530771240540e+02
-2.033923895666485038e+01 2.882842576384522104e+01 -4.413212316856642587e+02
-3.209204471891161603e+01 4.012529917471857033e+01 -4.405633597818535350e+02
-3.170924490027552878e+01 3.870237970639357883e+01 -4.436298220745059666e+02
-6.386428593485085514e+01 3.670535041538374799e+01 -4.395043886732398164e+02
-6.436400605836135469e+01 4.018918640110168639e+01 -4.411913785080142816e+02
-3.737150006909745059e+01 4.564240534073405797e+01 -4.412854118531608378e+02
-6.542284753224224403e+01 4.186634378839631410e+01 -4.405773030759423818e+02
-6.677971172232750519e+01 3.895643672991961637e+01 -4.358081756897864238e+02
-4.353526683175574163e+01 5.268071063195441184e+01 -4.436857091513911087e+02
-3.401867769095934335e+01 5.541006627597196399e+01 -4.417784800680096851e+02
-2.141294449754578011e+01 5.013176750886488264e+01 -4.393577985559923036e+02
-2.470598586389463236e+01 5.402811617256663368e+01 -4.402153326534686926e+02
-3.563812952153126190e+01 6.231506671961425070e+01 -4.388742303845472179e+02
-3.189625618626619641e+01 5.933525788742462481e+01 -4.409907424321875169e+02
-4.478118139816119481e+01 1.765107488534024327e+01 -4.411894614949061975e+02
-4.299081300276568385e+01 1.813748467855521795e+01 -4.436730857206035239e+02
-6.245304186339249242e+01 3.423147864887787506e+01 -4.396655490918078613e+02
-4.485619528794604349e+01 6.018770608746179107e+01 -4.428714159390418672e+02
-3.882874830655521237e+01 5.290973676252104951e+01 -4.406287300269457887e+02
-4.281993319609566129e+01 5.655653653579050655e+01 -4.421535052282947049e+02
-4.366837742754946561e+01 6.432132135971251330e+01 -4.407797624573520352e+02
-5.335702455382335785e+01 6.707099559303942726e+01 -4.426264044484473175e+02
-3.807644335205660724e+01 8.352818082033445890e+00 -4.469085195252793596e+02
-5.510910821902390921e+01 2.754698560703050703e+01 -4.416739148876895342e+02
-2.608634659155440261e+01 3.391343985828994079e+01 -4.430862205298773233e+02
-2.053267038511367204e+01 3.001572108339376399e+01 -4.447720195989069794e+02
-6.578875582694965374e+01 4.439722370442810018e+01 -4.408046205326853624e+02
-2.335204874654322182e+01 5.006869088819605906e+01 -4.401134222636525237e+02
-3.067811854764592994e+01 5.562392221243287338e+01 -4.418543397674151265e+02
-6.488539634750941332e+01 6.096763207916315963e+01 -4.463520132548846391e+02
-4.686060873292804274e+01 5.861286245170933284e+01 -4.443371259009696814e+02
-4.956992095726017311e+01 6.281396032223323544e+01 -4.442302287502764102e+02
-2.975102136604416359e+01 5.711661988383466593e+01 -4.415778372947174262e+02
-3.995162500374060954e+01 6.224105550730065062e+01 -4.417573251861233530e+02
-6.023001143276011504e+01 6.957549179427380182e+01 -4.429185730617471677e+02
-5.835263159776962993e+01 6.956510360787402192e+01 -4.446190951006146292e+02
-5.735843233056398560e+01 6.889533686050070571e+01 -4.392155926023538655e+02
-5.577471462705923244e+01 6.845124433843535883e+01 -4.420126250659079687e+02
-5.741038008710999918e+01 3.697979536951923762e+01 -4.467759348815026783e+02
-5.918053609638078427e+01 3.515676959730149775e+01 -4.435039580767199823e+02
-6.242166609340144134e+01 4.626732244431223506e+01 -4.464923446623109839e+02
-5.999094363938434782e+01 3.962791174622528700e+01 -4.456809499224902993e+02
-3.942305484341967770e+01 4.682459765798640916e+01 -4.432644137781692280e+02
-3.649915718561405953e+01 4.324336920434778619e+01 -4.441812519978051910e+02
-4.445150238601103609e+01 5.278695765926228489e+01 -4.468911720897129385e+02
-6.498201022129912019e+01 5.661354992432423927e+01 -4.461111970621897171e+02
-3.894670187438384090e+01 5.903733183386083994e+01 -4.424066577763038595e+02
-3.740321284316957673e+01 5.993932626813929687e+01 -4.423379470617462630e+02
-4.732091727177814988e+01 6.329783200987389336e+01 -4.426737202363381130e+02
-4.706982252925530474e+01 6.489581364263881369e+01 -4.415405534203906655e+02
-5.104431263192413581e+01 6.326864648555233117e+01 -4.453103878708462844e+02
-5.539144358555886072e+01 6.758857450146149404e+01 -4.455037010330703993e+02
-6.411236747434735150e+01 6.877528373523117011e+01 -4.463805390862725631e+02
-1.125913612129460084e+01 -1.612745086328984456e+01 -4.437321280003963011e+02
-3.977001380410639086e+01 1.929085279110088180e+01 -4.484636906331193131e+02
-4.198735026065723019e+01 2.414012995753795465e+01 -4.496672637363705576e+02
-5.779946252907391369e+01 4.033179443695078703e+01 -4.484706189941867365e+02
-6.569381479119992662e+01 4.884810411607205793e+01 -4.424435537660342561e+02
-5.149189062319068455e+01 6.302475744743953356e+01 -4.463611799441533208e+02
-5.092648417478704204e+01 6.238531439484329155e+01 -4.472266316760587301e+02
-5.566027706284679510e+01 6.797765869905585134e+01 -4.455982035796778291e+02
-5.377246530996536222e+01 6.572715083107212308e+01 -4.459170135393256942e+02
-2.170335643320296626e+01 -1.440797632960243924e+01 -4.475338258140499761e+02
-6.466915656248935385e+00 -1.060913416844792323e+01 -4.438618752917680013e+02
-6.470939705152948918e+00 8.101670815715896978e+00 -4.427849993499918355e+02
-5.433303564268301855e+00 8.180453012354105269e+00 -4.519919199994998280e+02
-8.650361065437554231e+00 1.651102614378267219e+01 -4.477630243645625683e+02
-1.733898010617068053e+01 2.849953004687460378e+01 -4.490967441662910460e+02
-1.436393393675764685e+01 2.265490004722706630e+01 -4.431941550369950278e+02
-1.401880100035076460e+01 2.476016557949072450e+01 -4.500583077109203032e+02
-4.995397858336450980e+01 2.762476158385198133e+01 -4.460854894659193519e+02
-2.379915403975203603e+01 3.399556434360538759e+01 -4.484364686563163787e+02
-2.863222730042369690e+01 3.677095530056104877e+01 -4.461690850367681946e+02
-5.422606398880040501e+01 3.026244808505542139e+01 -4.446718514604139614e+02
-3.378755357040483887e+01 4.077708900808788428e+01 -4.462786696675642020e+02
-4.164731572594126163e+01 4.857934591172778482e+01 -4.500644586519838413e+02
-5.423738898252369012e+01 6.957053410198936660e+01 -4.480826397418445595e+02
-5.631713645221341125e+01 7.077951498839600220e+01 -4.487089237714504861e+02
-5.954280320132693305e+01 7.081622503929607149e+01 -4.465029440176109574e+02
-3.767597601267148377e+01 4.450765010939374378e+01 -4.488067489464268647e+02
-3.850836032582157742e+01 4.531020890284525393e+01 -4.470226219744440641e+02
-6.427829373187120154e+01 5.491465126586924583e+01 -4.473232944775155033e+02
-4.955794639522910927e+01 6.032035372227595360e+01 -4.474287661532648031e+02
-5.103857324293888098e+01 6.294862135087100086e+01 -4.481161565814443293e+02
-5.415228294061881087e+01 6.950529983816787194e+01 -4.480999490728653996e+02
-5.285135528151607787e+01 6.726271523178210998e+01 -4.484482910298936531e+02
-6.184914622089714697e+01 7.023575633596395562e+01 -4.452529936067218728e+02
-6.076795982920671690e+01 7.170861698417006380e+01 -4.486024670726069417e+02
-6.388839798735828168e+01 6.988790121626681184e+01 -4.494786117646818866e+02
-1.279643974665425965e+01 -1.735014337830355657e+01 -4.479144284391495034e+02
-3.414829906584694896e+01 -2.153412402708801743e+00 -4.459888145084207167e+02
-5.122331307335946882e+00 -3.482175040299451130e+00 -4.445883819161854262e+02
-1.781540715724891699e+00 -9.542325028719368163e+00 -4.548553662845212671e+02
-3.251847028299480513e+01 -1.387954175047744210e+00 -4.502439106238189197e+02
-5.033570094391524918e+01 3.322910723333789917e+01 -4.509890575542503370e+02
-4.560071197617398298e+01 2.573610800295997336e+01 -4.479336774117256255e+02
-5.262035544033219736e+01 3.217014479475837163e+01 -4.481478506330738014e+02
-3.463832738337619332e+01 4.176513152675217810e+01 -4.483904686440799878e+02
-4.777217061329726278e+01 5.623293047692446578e+01 -4.511311663387997442e+02
-4.832107610687802435e+01 5.904276244790010963e+01 -4.461249708892581225e+02
-5.255232516333759918e+01 6.670986177357042379e+01 -4.492320021600378368e+02
-5.383848465594399357e+01 6.850887183287663618e+01 -4.497245536787050924e+02
-5.861949557738213201e+01 7.160113272486485414e+01 -4.485970375128127330e+02
-5.646539451434617263e+01 7.101138680151103699e+01 -4.493645013583360424e+02
-1.023628171152987143e+01 -1.846995330697553683e+01 -4.523129245953592203e+02
-8.984903592672974781e+00 -1.719438686117336701e+01 -4.487481822546807848e+02
-3.159025883393752210e+01 -1.232601635746113899e+01 -4.553017622085970970e+02
-3.843426207569356023e+01 -4.610918373277211657e+00 -4.545550248032709533e+02
-3.641105329978805116e+01 1.738131824297019890e+01 -4.516608106776440081e+02
-3.330999162570325467e+01 4.104880244517914889e+01 -4.496692175048997910e+02
-2.570597516460842868e+01 3.587930596708475406e+01 -4.506732236309964037e+02
-5.337939126392757316e+01 3.762701598620538590e+01 -4.519903625119586081e+02
-3.747768380831086432e+01 4.423590351632850570e+01 -4.503071862761173065e+02
-5.774914294268199200e+01 4.719342397910102704e+01 -4.520454534087297134e+02
-6.405879529576831999e+01 5.018685998532835413e+01 -4.458884468620474308e+02
-4.492063588357240178e+01 5.177254383862806009e+01 -4.521676786250149576e+02
-6.369394198695060538e+01 6.217223289248771323e+01 -4.502920842389509630e+02
-6.366797828443912266e+01 6.944007570095212145e+01 -4.514601642063036593e+02
-2.244082044641003293e+01 -1.431293561770216449e+01 -4.519472116433281599e+02
-3.020921777588211121e+00 -9.585269705760927295e+00 -4.502046367412930294e+02
-4.940463373305773231e+00 -1.454399258575751475e+01 -4.497920668168917473e+02
-2.807090580230409316e+01 -9.178935134541136520e+00 -4.493021326412642225e+02
-3.240998424222190977e+01 -8.192689288994300156e+00 -4.536914759097523415e+02
-3.142073944286737230e+01 -4.511509906673390802e+00 -4.524131363893025650e+02
-3.821378219260711262e+01 -9.425927649255242402e-01 -4.537219162294476291e+02
-3.443059829576650088e+01 5.485976803870509677e+00 -4.521250062866466237e+02
-4.177766976121407794e+01 8.306103917893652877e+00 -4.543332032003001473e+02
-4.431971168815840656e+01 2.776551423809613439e+01 -4.506003088702583455e+02
-3.354928069121220346e+01 4.081349716814496986e+01 -4.514418508729677342e+02
-5.682651221202627312e+01 4.361024368328130407e+01 -4.513080662140828849e+02
-5.054182178927781877e+01 6.111991080336871818e+01 -4.498927431578207461e+02
-6.412477691114911238e+01 6.734269281076863933e+01 -4.502993968619393286e+02
-5.376831426372272915e+01 6.448186734915448426e+01 -4.528999035281293004e+02
-6.054137355439386425e+01 7.094636851913394082e+01 -4.518971000500304172e+02
-5.655242433552979975e+01 7.068622128376566138e+01 -4.502949626628966371e+02
-6.224681887702625716e+01 7.126067555171511003e+01 -4.507622712748727167e+02
-5.965980480925374962e+01 7.191934137885731104e+01 -4.489713277979415125e+02
-6.188503385737203821e+00 -1.728523729573795720e+01 -4.516507678653725293e+02
-1.574349107047864926e+01 -1.746546064895026618e+01 -4.517153845309795202e+02
-4.255300722042279915e+01 2.974842741337035967e+00 -4.546364555902530356e+02
-3.337286882479705952e+01 1.238723220405634207e-01 -4.523890618666590058e+02
-4.223980329312218629e+01 -1.711119325936878210e+00 -4.555799589599110391e+02
-3.626734263590554264e+01 2.082643216331818792e+01 -4.540076187969000898e+02
-3.662878867043981757e+01 2.200720559816933175e+01 -4.535649978254623989e+02
-1.061168548331412431e+01 2.016057180521573855e+01 -4.505924411012574637e+02
-1.190002209067901617e+01 2.283878955611974604e+01 -4.548411418330512106e+02
-3.919692871677016655e+01 2.592339751087311583e+01 -4.526118575316681358e+02
-4.487029879447830893e+01 3.163446789799957415e+01 -4.527756612713768618e+02
-2.253339731076432884e+01 3.373118579799096750e+01 -4.522235155305675107e+02
-3.572204551730985145e+01 4.101414066850567508e+01 -4.533747545367489238e+02
-3.897369266624048123e+01 4.476184797692356199e+01 -4.518259597176973443e+02
-4.485877701535392248e+01 4.935480283338008434e+01 -4.557338448137993510e+02
-5.605525573649991600e+01 5.449962367783283668e+01 -4.556227445542970713e+02
-6.201619831899340340e+01 6.033016271265744734e+01 -4.521392565780818700e+02
-6.262206469394544683e+01 5.552069936652409154e+01 -4.498866814141978239e+02
-1.463148647041707839e+01 -1.895459799404843793e+01 -4.540379871009692465e+02
-2.925067615597076554e+01 -1.092672398191579752e+01 -4.536861816171284545e+02
-2.780356099003969206e+01 -1.001547447716824912e+01 -4.525360803648683259e+02
-3.545360536868398071e+01 1.214389731538049055e+01 -4.526069028930629088e+02
-4.561780043543549112e+01 1.525075440145040950e+01 -4.556626310928710950e+02
-4.529586804661530408e+01 2.086573975560961003e+01 -4.566427852617376288e+02
-3.673679502579301470e+01 2.765489574469035716e+01 -4.550876057329130617e+02
-4.139253083643516362e+01 3.349586425889431496e+01 -4.545346832354782691e+02
-1.919431768838557417e+01 3.058686825418135768e+01 -4.505281593079648701e+02
-2.941171545941489995e+01 3.390962549338608767e+01 -4.581485346758490209e+02
-2.945803697250759612e+01 3.847372839371902842e+01 -4.519999692930862238e+02
-3.110248249970675616e+01 3.539707386488203866e+01 -4.556912843476887929e+02
-3.272090482067488182e+01 3.737846647429531544e+01 -4.542108323579555531e+02
-4.894023545975515788e+01 3.740337700948724375e+01 -4.555587745818610301e+02
-3.756632642593037019e+01 3.209248768681414532e+01 -4.552439704622373142e+02
-3.972800276109915529e+01 3.683757532567011594e+01 -4.551994003082940594e+02
-3.954658308264743738e+01 4.177466312445555019e+01 -4.547957449124781419e+02
-5.197735498859366743e+01 4.383812761622333909e+01 -4.564507603110991454e+02
-5.690088546467438135e+01 5.779017665081930488e+01 -4.553972256013582864e+02
-5.876358814891668203e+01 6.843442969217475991e+01 -4.539582069713919168e+02
-1.249739454853207299e+01 -2.090952220515997695e+01 -4.586194071578343028e+02
-2.275834972364842557e+01 -1.700878878226877688e+01 -4.562288702806426954e+02
-3.573909075003317071e+01 -9.316686921018163758e+00 -4.560113191796143042e+02
-2.461221594878628594e+01 -1.338088716881624762e+01 -4.534365558850614661e+02
-2.819025152140207524e+01 -8.860347601461070255e+00 -4.519804484127169530e+02
-4.390621823156792658e+01 -1.879906228266767121e+00 -4.576125821039583457e+02
-3.244948950330754656e+01 -1.562795987693756272e+00 -4.516637507529753748e+02
-1.453019434212786010e+00 -7.444128955319957441e+00 -4.594528588222175927e+02
-4.631102766426835160e+01 2.698075239603970221e+00 -4.578453605327907212e+02
-3.358010107291724466e+01 2.053521026296527996e+00 -4.523438427958125772e+02
-3.558492808872353663e+01 6.633227615843584779e+00 -4.529616707774939641e+02
-3.545164368739589378e+01 1.125219329202744944e+01 -4.528013967755114777e+02
-3.629744726825378365e+01 1.351419563503333521e+01 -4.535664171568071197e+02
-4.885120395845173391e+01 1.781500043012315615e+01 -4.570977850090823722e+02
-3.601323480541564237e+01 2.799847240908234625e+01 -4.563302474098566677e+02
-9.646820062246078464e+00 2.053205838180760168e+01 -4.579161436377007703e+02
-3.496201876755020521e+01 3.136056792129504700e+01 -4.561002952137775992e+02
-3.305253540100817844e+01 3.189442461011343255e+01 -4.572906388833058600e+02
-1.678333417159726082e+01 2.849901035989926612e+01 -4.564119043611544839e+02
-4.592482070733969124e+01 3.771737298168139318e+01 -4.565793615122918823e+02
-4.240414818278364351e+01 4.596716716748596809e+01 -4.554959666507661495e+02
-6.143179588547589276e+01 6.485379269773835631e+01 -4.539376299889705706e+02
-6.333321918250177873e+01 6.621573752331258333e+01 -4.521785546944859675e+02
-6.230112850637622302e+01 7.045224799007129945e+01 -4.522510843045837987e+02
-6.193606282247973382e+01 6.805957716223517195e+01 -4.534853050053981747e+02
-1.827664261122612643e+01 -1.788898755285440245e+01 -4.551496643081120510e+02
-2.789888767034523553e+01 -1.537821637782422712e+01 -4.565108982704909977e+02
-2.820803502828498921e+01 -1.613134946733504904e+01 -4.585663213139882259e+02
-5.037668294166689265e+01 1.134822261707591906e+01 -4.596609774031285269e+02
-5.128995703332547151e+01 1.971053260340109503e+01 -4.595417582334447957e+02
-4.723322126517351904e+01 9.720811227003054000e+00 -4.567951239681942184e+02
-4.676129515176798535e+00 9.708339877004021901e+00 -4.600304896354454058e+02
-3.806020161615899866e+01 1.245421750330240229e+01 -4.540476157931222474e+02
-4.366670687541460438e+01 2.405722660525615098e+01 -4.581417469516901519e+02
-3.883518743377823057e+01 2.143439575528079644e+01 -4.560032336562618411e+02
-4.924861954800821451e+01 2.244529354598843796e+01 -4.577217629584111478e+02
-3.635802800751626762e+01 2.331139386998915697e+01 -4.551092503547832848e+02
-1.832934774287404167e+01 2.968566263221500989e+01 -4.589379371117523192e+02
-2.439067203964537711e+01 3.380025125943096498e+01 -4.561988209688294660e+02
-5.220992172516307051e+01 5.943141024777284542e+01 -4.555582261647069231e+02
-5.899464212763770377e+01 6.548936142230520829e+01 -4.550927795232096287e+02
-5.718045924849025852e+01 6.916384759188629516e+01 -4.527303875605132362e+02
-5.752418885061779008e+00 -1.872086139149116235e+01 -4.556324362479046499e+02
-5.461551606615154597e+00 -1.999913207530778436e+01 -4.603356440050243918e+02
-7.755079880050451457e+00 1.663579599332800285e+01 -4.547161378260904030e+02
