-7.478620000000000267e+00 -2.638149999999999906e+01 -6.781749999999999545e+02
-9.976219999999999644e+00 -2.637379999999999924e+01 -6.782229999999999563e+02
-2.718169999999999931e+01 -3.275200000000000244e+01 -6.650489999999999782e+02
-2.898939999999999984e+01 -3.145609999999999928e+01 -6.650760000000000218e+02
-2.885519999999999996e+01 -3.114989999999999881e+01 -6.625499999999999545e+02
-2.710269999999999868e+01 -3.213419999999999987e+01 -6.624880000000000564e+02
-5.587880000000000180e+00 -2.873659999999999926e+01 -6.575049999999999955e+02
-5.581400000000000361e+00 -2.887430000000000163e+01 -6.599120000000000346e+02
-2.139979999999999993e+00 -2.912010000000000076e+01 -6.595860000000000127e+02
-2.155580000000000052e+00 -2.929639999999999844e+01 -6.575710000000000264e+02
3.191520000000000135e+00 -2.884450000000000003e+01 -6.551009999999999991e+02
2.521819999999999951e+00 -2.885229999999999961e+01 -6.524640000000000555e+02
-3.353020000000000306e-02 -2.868590000000000018e+01 -6.519629999999999654e+02
-2.348810000000000064e-01 -2.938650000000000162e+01 -6.554370000000000118e+02
-6.083489999999999753e+01 4.739029999999999632e+00 -6.501280000000000427e+02
-6.068670000000000186e+01 4.733030000000000292e+00 -6.474410000000000309e+02
-6.162599999999999767e+01 6.624039999999999928e+00 -6.473920000000000528e+02
-6.174530000000000030e+01 6.621739999999999959e+00 -6.501369999999999436e+02
-1.257210000000000036e+02 -5.521670000000000300e+01 -6.352530000000000427e+02
-1.259950000000000045e+02 -5.517179999999999751e+01 -6.326660000000000537e+02
-1.263679999999999950e+02 -5.327259999999999707e+01 -6.332450000000000045e+02
-1.265799999999999983e+02 -5.264659999999999940e+01 -6.352269999999999754e+02
3.215669999999999806e+00 -4.510990000000000322e+01 -6.024919999999999618e+02
3.029310000000000169e+00 -4.507880000000000109e+01 -6.050090000000000146e+02
4.072790000000000354e+00 -4.251230000000000331e+01 -6.050969999999999800e+02
4.257579999999999920e+00 -4.243010000000000304e+01 -6.025539999999999736e+02
1.674709999999999921e+00 -3.644700000000000273e+01 -5.625109999999999673e+02
1.595199999999999951e+00 -4.003229999999999933e+01 -5.618310000000000173e+02
1.892239999999999922e+00 -4.001120000000000232e+01 -5.635710000000000264e+02
2.478509999999999991e+00 -3.859989999999999810e+01 -5.636240000000000236e+02
-6.494140000000000157e+01 8.124120000000000630e+01 -5.519139999999999873e+02
-6.247690000000000055e+01 8.137059999999999604e+01 -5.517799999999999727e+02
-6.245850000000000080e+01 8.165909999999999513e+01 -5.554220000000000255e+02
-6.482229999999999848e+01 8.168970000000000198e+01 -5.554519999999999982e+02
-9.468009999999999593e+00 -3.251820000000000022e+01 -5.322039999999999509e+02
-8.471009999999999707e+00 -3.540489999999999782e+01 -5.313659999999999854e+02
-7.556910000000000238e+00 -3.529679999999999751e+01 -5.327839999999999918e+02
-7.771169999999999689e+00 -3.303229999999999933e+01 -5.330230000000000246e+02
-1.498049999999999926e+01 -1.146090000000000053e+01 -5.088039999999999736e+02
-1.250500000000000078e+01 -1.157799999999999940e+01 -5.087799999999999727e+02
-1.277480000000000082e+01 -1.523359999999999914e+01 -5.102640000000000100e+02
-1.501239999999999952e+01 -1.445829999999999949e+01 -5.108750000000000000e+02
-9.959569999999999368e+00 -2.236549999999999816e+00 -5.000860000000000127e+02
-8.921889999999999432e+00 -9.553180000000000005e-01 -4.974839999999999804e+02
-7.112669999999999604e+00 -2.748409999999999798e+00 -4.974909999999999854e+02
-6.418590000000000018e+00 -4.165479999999999627e+00 -4.982459999999999809e+02
-6.967520000000000380e+00 -4.718449999999999811e+00 -5.003369999999999891e+02
-9.004509999999999792e+00 -3.778270000000000017e+00 -5.011720000000000255e+02
-6.298350000000000115e+00 2.075319999999999965e+01 -4.774750000000000227e+02
-6.286620000000000097e+00 2.070840000000000103e+01 -4.800009999999999764e+02
-7.244139999999999802e+00 2.257809999999999917e+01 -4.799820000000000277e+02
-6.905409999999999826e+00 2.274149999999999849e+01 -4.774830000000000041e+02
-1.502490000000000059e+01 -2.138029999999999831e+01 -4.695400000000000205e+02
-1.249760000000000026e+01 -2.112229999999999919e+01 -4.701050000000000182e+02
-1.239910000000000068e+01 -2.095759999999999934e+01 -4.674320000000000164e+02
-1.505090000000000039e+01 -2.097380000000000067e+01 -4.673140000000000214e+02
-6.638569999999999993e+01 1.994699999999999918e+01 -4.687239999999999895e+02
-6.508039999999999736e+01 2.006380000000000052e+01 -4.672649999999999864e+02
-6.499790000000000134e+01 2.250519999999999854e+01 -4.673260000000000218e+02
-6.631600000000000250e+01 2.249919999999999831e+01 -4.687740000000000009e+02
3.147939999999999827e+01 3.434250000000000114e+01 -4.518820000000000050e+02
3.248140000000000072e+01 3.211099999999999710e+01 -4.501050000000000182e+02
2.959740000000000038e+01 3.389309999999999690e+01 -4.483629999999999995e+02
3.068339999999999890e+01 3.721189999999999998e+01 -4.522169999999999845e+02
3.162509999999999977e+01 3.658590000000000231e+01 -4.524189999999999827e+02
2.966929999999999978e+01 3.326769999999999783e+01 -4.453720000000000141e+02
3.288029999999999831e+01 3.307169999999999987e+01 -4.451460000000000150e+02
3.294180000000000064e+01 3.518560000000000088e+01 -4.424680000000000177e+02
3.016250000000000142e+01 3.398349999999999937e+01 -4.424499999999999886e+02
2.493680000000000163e+01 3.596710000000000207e+01 -4.372080000000000268e+02
2.377819999999999823e+01 3.596029999999999660e+01 -4.401870000000000118e+02
2.773669999999999902e+01 3.468480000000000274e+01 -4.401480000000000246e+02
2.777169999999999916e+01 3.714079999999999870e+01 -4.366549999999999727e+02
-1.217670000000000030e+01 1.135720000000000027e+02 -4.200720000000000027e+02
-1.435260000000000069e+01 1.140060000000000002e+02 -4.200000000000000000e+02
-1.434980000000000011e+01 1.139230000000000018e+02 -4.175389999999999873e+02
-1.217239999999999966e+01 1.134819999999999993e+02 -4.174769999999999754e+02
8.745870000000000033e+00 -1.786139999999999950e-01 -3.883829999999999814e+02
7.456319999999999837e+00 -3.813810000000000255e-01 -3.905339999999999918e+02
8.381280000000000285e+00 2.473380000000000134e+00 -3.904399999999999977e+02
8.998879999999999768e+00 2.505040000000000155e+00 -3.883389999999999986e+02
-1.246289999999999942e+01 3.598759999999999959e+00 -7.112740000000000009e+02
-1.246610000000000085e+01 3.783560000000000256e-01 -7.134690000000000509e+02
-1.500520000000000032e+01 -1.106329999999999952e-01 -7.135860000000000127e+02
-1.507890000000000086e+01 3.720320000000000071e+00 -7.114289999999999736e+02
-5.167600000000000193e+01 -2.745860000000000056e+01 -6.863769999999999527e+02
-5.164800000000000324e+01 -2.984690000000000154e+01 -6.863350000000000364e+02
-5.522749999999999915e+01 -3.002270000000000039e+01 -6.870629999999999882e+02
-5.531130000000000280e+01 -2.751679999999999993e+01 -6.868479999999999563e+02
-2.111009999999999920e+01 -4.253110000000000213e+01 -6.661910000000000309e+02
-2.238100000000000023e+01 -4.244959999999999667e+01 -6.676950000000000500e+02
-2.219190000000000040e+01 -4.000909999999999656e+01 -6.678509999999999991e+02
-2.098710000000000164e+01 -3.987859999999999872e+01 -6.663319999999999936e+02
-7.016259999999999764e+01 9.913739999999999775e-01 -6.650069999999999482e+02
-6.747929999999999495e+01 1.224769999999999914e+00 -6.648079999999999927e+02
-6.760209999999999297e+01 1.547949999999999937e+00 -6.675720000000000027e+02
-7.019679999999999609e+01 6.626269999999999660e-01 -6.675149999999999864e+02
-6.489700000000000557e+01 7.315570000000000128e-01 -6.647789999999999964e+02
-6.489660000000000650e+01 1.304999999999999938e+00 -6.669470000000000027e+02
-3.178699999999999903e+01 -2.917889999999999873e+01 -6.650170000000000528e+02
-3.188400000000000034e+01 -2.924289999999999878e+01 -6.625090000000000146e+02
1.616659999999999897e+01 -2.128069999999999951e+01 -6.499329999999999927e+02
1.318539999999999957e+01 -2.345230000000000103e+01 -6.500209999999999582e+02
1.343909999999999982e+01 -2.361280000000000001e+01 -6.525259999999999536e+02
1.621049999999999969e+01 -2.124139999999999873e+01 -6.526019999999999754e+02
1.877489999999999881e+01 -1.860129999999999839e+01 -6.499479999999999791e+02
1.880959999999999965e+01 -1.866880000000000095e+01 -6.526209999999999809e+02
-8.997610000000000241e+01 -3.609999999999999876e+00 -6.400090000000000146e+02
-9.074460000000000548e+01 -3.555699999999999861e+00 -6.426100000000000136e+02
-9.284470000000000312e+01 -4.299260000000000304e+00 -6.425389999999999873e+02
-9.271850000000000591e+01 -4.192999999999999616e+00 -6.400000000000000000e+02
-2.529720000000000191e+00 -2.133990000000000009e+01 -6.365650000000000546e+02
-2.485720000000000152e+00 -2.315869999999999962e+01 -6.400449999999999591e+02
1.009679999999999996e-03 -2.319910000000000139e+01 -6.396739999999999782e+02
2.941970000000000002e-02 -2.147739999999999938e+01 -6.364819999999999709e+02
-9.005599999999999739e+01 -3.659359999999999946e+00 -6.306440000000000055e+02
-8.997889999999999588e+01 -4.041030000000000122e+00 -6.327809999999999491e+02
-9.255039999999999623e+01 -3.933689999999999909e+00 -6.328550000000000182e+02
-9.253560000000000230e+01 -3.647749999999999826e+00 -6.306970000000000027e+02
3.692410000000000192e+00 -3.982950000000000301e+01 -6.075529999999999973e+02
3.703650000000000109e+00 -4.270420000000000016e+01 -6.076349999999999909e+02
3.362140000000000128e+00 -4.259199999999999875e+01 -6.101440000000000055e+02
3.445339999999999847e+00 -3.991680000000000206e+01 -6.101109999999999900e+02
3.576690000000000147e+00 -3.950630000000000308e+01 -6.049890000000000327e+02
3.488859999999999850e+00 -3.950769999999999982e+01 -6.025109999999999673e+02
4.291330000000000311e+00 -4.270190000000000197e+01 -5.999539999999999509e+02
3.127650000000000041e+00 -4.507529999999999859e+01 -5.999629999999999654e+02
3.442200000000000149e+00 -3.938259999999999650e+01 -6.000330000000000155e+02
3.601010000000000044e+00 -3.924699999999999989e+01 -5.975789999999999509e+02
4.196620000000000239e+00 -4.270589999999999975e+01 -5.974320000000000164e+02
3.995639999999999858e+00 -4.270640000000000214e+01 -5.948719999999999573e+02
3.275980000000000114e+00 -3.903629999999999711e+01 -5.949550000000000409e+02
3.265789999999999971e+00 -3.899770000000000181e+01 -5.924850000000000136e+02
3.875490000000000101e+00 -4.269559999999999889e+01 -5.924220000000000255e+02
3.546510000000000051e+00 -4.267099999999999937e+01 -5.898780000000000427e+02
3.476319999999999855e+00 -3.927729999999999677e+01 -5.899139999999999873e+02
3.313590000000000035e+00 -3.939840000000000231e+01 -5.874080000000000155e+02
3.305919999999999970e+00 -4.258469999999999800e+01 -5.874109999999999445e+02
3.158869999999999845e+00 -4.256889999999999930e+01 -5.849370000000000118e+02
2.992579999999999796e+00 -3.999029999999999774e+01 -5.849289999999999736e+02
-1.263750000000000000e+02 -4.252199999999999847e+01 -5.767219999999999800e+02
-1.263160000000000025e+02 -4.003540000000000276e+01 -5.768429999999999609e+02
-1.269410000000000025e+02 -4.015930000000000177e+01 -5.804080000000000155e+02
-1.272030000000000030e+02 -4.252590000000000003e+01 -5.803400000000000318e+02
2.459839999999999804e+00 -3.744339999999999691e+01 -5.750320000000000391e+02
3.660489999999999799e+00 -4.040780000000000172e+01 -5.748840000000000146e+02
3.808139999999999858e+00 -4.006710000000000349e+01 -5.774790000000000418e+02
2.089999999999999858e+00 -3.780760000000000076e+01 -5.775750000000000455e+02
1.279539999999999900e+00 -4.001839999999999975e+01 -5.596789999999999736e+02
1.492010000000000058e+00 -3.629719999999999658e+01 -5.597350000000000136e+02
-1.917439999999999978e-01 -4.022910000000000252e+01 -5.549260000000000446e+02
5.556259999999999533e-01 -4.009550000000000125e+01 -5.573529999999999518e+02
1.541250000000000009e+00 -3.724880000000000280e+01 -5.571309999999999718e+02
1.010979999999999990e+00 -3.739330000000000354e+01 -5.549750000000000227e+02
-1.064729999999999990e+02 2.504469999999999885e+01 -5.489919999999999618e+02
-1.078359999999999985e+02 2.511479999999999890e+01 -5.526250000000000000e+02
-1.084890000000000043e+02 2.253620000000000090e+01 -5.525299999999999727e+02
-1.063340000000000032e+02 2.248639999999999972e+01 -5.489719999999999800e+02
-6.503789999999999338e+01 8.097990000000000066e+01 -5.496979999999999791e+02
-6.249179999999999779e+01 8.099519999999999698e+01 -5.496130000000000564e+02
-3.296649999999999858e-01 -3.510349999999999682e+01 -5.461380000000000337e+02
-1.903739999999999988e+00 -3.457249999999999801e+01 -5.450439999999999827e+02
-1.021050000000000013e+00 -3.830570000000000164e+01 -5.441689999999999827e+02
-6.994319999999999704e-02 -3.800090000000000146e+01 -5.458429999999999609e+02
-2.224600000000000133e+00 -3.444259999999999877e+01 -5.425149999999999864e+02
-1.719799999999999995e+00 -3.824830000000000041e+01 -5.423460000000000036e+02
-2.475340000000000096e+00 -3.802069999999999794e+01 -5.403369999999999891e+02
-2.497580000000000133e+00 -3.442920000000000158e+01 -5.408419999999999845e+02
-3.824580000000000091e+00 -3.406499999999999773e+01 -5.399289999999999736e+02
-3.525959999999999983e+00 -3.782920000000000016e+01 -5.389089999999999918e+02
-4.054039999999999644e+00 -3.469550000000000267e+01 -5.371720000000000255e+02
-4.915569999999999773e+00 -3.770109999999999673e+01 -5.371720000000000255e+02
-1.206690000000000040e+01 -3.183589999999999876e+01 -5.299020000000000437e+02
-1.210570000000000057e+01 -3.146709999999999852e+01 -5.324460000000000264e+02
-1.476539999999999964e+01 -3.131469999999999843e+01 -5.324439999999999600e+02
-1.415939999999999976e+01 -3.123209999999999908e+01 -5.298319999999999936e+02
-9.457000000000000739e+00 -3.522019999999999840e+01 -5.297029999999999745e+02
-1.020079999999999920e+01 -3.298060000000000258e+01 -5.298619999999999663e+02
-4.262480000000000047e+01 -1.615650000000000119e+01 -5.213640000000000327e+02
-4.255109999999999815e+01 -1.834580000000000055e+01 -5.242659999999999627e+02
-4.004599999999999937e+01 -1.849889999999999901e+01 -5.241100000000000136e+02
-4.005989999999999895e+01 -1.621059999999999945e+01 -5.213400000000000318e+02
-9.397050000000000125e+01 1.350590000000000046e+01 -5.201420000000000528e+02
-9.282189999999999941e+01 1.348160000000000025e+01 -5.230919999999999845e+02
-9.458650000000000091e+01 1.180910000000000082e+01 -5.224109999999999445e+02
-9.450459999999999638e+01 1.164109999999999978e+01 -5.201649999999999636e+02
-1.433419999999999916e+01 -2.976060000000000016e+01 -5.201380000000000337e+02
-1.375360000000000049e+01 -2.996150000000000091e+01 -5.175420000000000300e+02
-1.403550000000000075e+01 -3.258059999999999690e+01 -5.173609999999999900e+02
-1.368950000000000067e+01 -3.250450000000000017e+01 -5.200620000000000118e+02
-1.383280000000000065e+01 -3.018479999999999919e+01 -5.149339999999999691e+02
-1.403369999999999962e+01 -2.731159999999999854e+01 -5.178469999999999800e+02
-1.329889999999999972e+01 -2.748730000000000118e+01 -5.150109999999999673e+02
-1.387800000000000011e+01 -2.480989999999999895e+01 -5.157640000000000100e+02
-1.537020000000000053e+01 -2.491959999999999908e+01 -5.177269999999999754e+02
-8.955209999999999582e+01 1.922739999999999938e+01 -5.186910000000000309e+02
-8.966270000000000095e+01 1.742470000000000141e+01 -5.200230000000000246e+02
-9.249580000000000268e+01 1.724520000000000053e+01 -5.190929999999999609e+02
-9.232569999999999766e+01 1.711629999999999896e+01 -5.174199999999999591e+02
-9.205679999999999552e+01 1.675169999999999959e+01 -5.151169999999999618e+02
-9.148919999999999675e+01 1.859779999999999944e+01 -5.150099999999999909e+02
-2.996989999999999910e+01 -5.329370000000000118e+01 -5.111469999999999914e+02
-3.250900000000000034e+01 -5.338040000000000163e+01 -5.111789999999999736e+02
-3.248539999999999850e+01 -5.536189999999999856e+01 -5.119859999999999900e+02
-2.992220000000000013e+01 -5.536869999999999692e+01 -5.118419999999999845e+02
-3.750759999999999650e+01 -4.098400000000000176e+01 -5.061480000000000246e+02
-3.749649999999999750e+01 -4.291550000000000153e+01 -5.070070000000000050e+02
-3.498689999999999856e+01 -4.290690000000000026e+01 -5.069569999999999936e+02
-3.497670000000000101e+01 -4.099179999999999779e+01 -5.060740000000000123e+02
-9.045820000000000860e+00 -9.895459999999999923e+00 -5.060079999999999814e+02
-8.674350000000000449e+00 -1.244749999999999979e+01 -5.060169999999999959e+02
-1.027630000000000088e+01 -1.245149999999999935e+01 -5.079499999999999886e+02
-1.265729999999999933e+01 -9.789770000000000749e+00 -5.077230000000000132e+02
-2.928500000000000014e+01 3.504670000000000130e+01 -4.985579999999999927e+02
-2.940190000000000126e+01 3.259150000000000347e+01 -4.985939999999999941e+02
-2.716779999999999973e+01 3.249539999999999651e+01 -4.988729999999999905e+02
-2.709169999999999945e+01 3.505160000000000053e+01 -4.990570000000000164e+02
-4.996070000000000277e+01 5.030649999999999977e+01 -4.988840000000000146e+02
-5.249629999999999797e+01 5.017020000000000124e+01 -4.987950000000000159e+02
-5.237630000000000052e+01 4.741799999999999926e+01 -4.987479999999999905e+02
-4.986430000000000007e+01 4.804169999999999874e+01 -4.987069999999999936e+02
-3.292969999999999686e+01 3.503540000000000276e+01 -4.983090000000000259e+02
-3.293889999999999674e+01 3.292540000000000333e+01 -4.983229999999999791e+02
-5.291980000000000217e+01 4.493209999999999837e+01 -4.987459999999999809e+02
-4.947690000000000055e+01 4.469219999999999970e+01 -4.986449999999999818e+02
-7.267260000000000275e+01 4.208550000000000324e+01 -4.899390000000000214e+02
-7.100449999999999307e+01 4.395289999999999964e+01 -4.899529999999999745e+02
-7.083679999999999666e+01 4.373230000000000217e+01 -4.924030000000000200e+02
-7.270120000000000005e+01 4.270949999999999847e+01 -4.923039999999999736e+02
-3.410220000000000340e+01 4.134859999999999758e+01 -4.850450000000000159e+02
-3.212689999999999912e+01 4.052989999999999782e+01 -4.850240000000000009e+02
-3.220830000000000126e+01 4.050630000000000308e+01 -4.874940000000000282e+02
-3.420179999999999865e+01 4.121889999999999787e+01 -4.875899999999999750e+02
-3.579349999999999810e+00 -1.006220000000000070e+01 -4.804379999999999882e+02
-3.760479999999999823e+00 -1.010089999999999932e+01 -4.826650000000000205e+02
-4.015469999999999651e+00 -7.424419999999999575e+00 -4.825470000000000255e+02
-4.010839999999999961e+00 -7.547250000000000014e+00 -4.798500000000000227e+02
-1.501759999999999984e+01 -2.149399999999999977e+01 -4.729850000000000136e+02
-1.194989999999999952e+01 -2.090549999999999997e+01 -4.726340000000000146e+02
-6.863209999999999411e+01 2.244399999999999906e+01 -4.715500000000000114e+02
-6.830589999999999407e+01 1.997309999999999874e+01 -4.718290000000000077e+02
-5.744200000000000017e+01 3.013650000000000162e+01 -4.628620000000000232e+02
-5.756569999999999965e+01 2.832310000000000016e+01 -4.614780000000000086e+02
-5.507410000000000139e+01 2.856749999999999901e+01 -4.611469999999999914e+02
-5.496779999999999688e+01 3.021689999999999898e+01 -4.623609999999999900e+02
-3.675580000000000069e+00 -5.020080000000000098e+00 -4.492710000000000150e+02
-4.033220000000000027e+00 -5.060380000000000322e+00 -4.470860000000000127e+02
-4.350789999999999935e+00 -7.588870000000000005e+00 -4.471870000000000118e+02
-3.657810000000000006e+00 -7.497869999999999813e+00 -4.493210000000000264e+02
-3.867129999999999956e+00 2.011499999999999844e+01 -4.452919999999999732e+02
-3.580649999999999888e+00 1.996509999999999962e+01 -4.431000000000000227e+02
-3.682139999999999969e+00 1.752850000000000108e+01 -4.431089999999999804e+02
-3.822459999999999969e+00 1.753890000000000171e+01 -4.452959999999999923e+02
3.396079999999999899e+01 4.251520000000000010e+01 -4.414850000000000136e+02
3.402300000000000324e+01 3.992320000000000135e+01 -4.414019999999999868e+02
3.639840000000000231e+01 4.242459999999999809e+01 -4.446789999999999736e+02
3.268500000000000227e+01 4.252369999999999806e+01 -4.398369999999999891e+02
3.240030000000000143e+01 3.995830000000000126e+01 -4.395889999999999986e+02
3.012190000000000012e+01 4.851950000000000074e+01 -4.425960000000000036e+02
3.011100000000000065e+01 4.797690000000000055e+01 -4.453720000000000141e+02
2.734860000000000113e+01 4.741819999999999879e+01 -4.455609999999999786e+02
2.736799999999999855e+01 4.892199999999999704e+01 -4.435819999999999936e+02
-4.353379999999999583e+00 9.609420000000000073e+00 -4.350760000000000218e+02
-4.051859999999999573e+00 9.598269999999999413e+00 -4.374830000000000041e+02
-3.832399999999999807e+00 1.181729999999999947e+01 -4.374909999999999854e+02
-3.600490000000000190e+00 1.158660000000000068e+01 -4.351600000000000250e+02
1.997269999999999968e+01 5.098169999999999646e+01 -4.359970000000000141e+02
2.290259999999999962e+01 5.143930000000000291e+01 -4.352490000000000236e+02
2.250870000000000104e+01 5.085660000000000025e+01 -4.379340000000000259e+02
2.002410000000000068e+01 4.955049999999999955e+01 -4.378029999999999973e+02
2.628819999999999979e+01 6.502559999999999718e+01 -4.250199999999999818e+02
2.630839999999999890e+01 6.243379999999999797e+01 -4.250260000000000105e+02
2.632529999999999859e+01 6.242150000000000176e+01 -4.276360000000000241e+02
2.633950000000000102e+01 6.502379999999999427e+01 -4.276179999999999950e+02
2.623629999999999995e+01 6.502870000000000061e+01 -4.224479999999999791e+02
2.627179999999999893e+01 6.243880000000000052e+01 -4.224499999999999886e+02
2.591639999999999944e+01 6.502349999999999852e+01 -4.198879999999999768e+02
2.593090000000000117e+01 6.245280000000000342e+01 -4.198870000000000005e+02
-1.471069999999999922e+01 1.133629999999999995e+02 -4.123269999999999982e+02
-1.484950000000000081e+01 1.136749999999999972e+02 -4.149669999999999845e+02
-1.668870000000000076e+01 1.138419999999999987e+02 -4.142590000000000146e+02
-1.680659999999999954e+01 1.138810000000000002e+02 -4.123399999999999750e+02
2.063769999999999882e+01 6.501579999999999870e+01 -3.996929999999999836e+02
2.141420000000000101e+01 6.500889999999999702e+01 -4.015779999999999745e+02
2.138650000000000162e+01 6.755870000000000175e+01 -4.015840000000000032e+02
2.059530000000000172e+01 6.756359999999999388e+01 -3.997019999999999982e+02
-4.205239999999999673e-02 1.052720000000000056e+01 -3.945910000000000082e+02
2.451130000000000031e+00 1.064199999999999946e+01 -3.947189999999999941e+02
2.752699999999999925e+00 1.137930000000000064e+01 -3.970600000000000023e+02
-1.573090000000000044e-01 1.139020000000000010e+01 -3.964010000000000105e+02
1.877580000000000027e+01 6.759310000000000684e+01 -3.963820000000000050e+02
1.884410000000000096e+01 6.502540000000000475e+01 -3.963690000000000282e+02
1.734499999999999886e+01 6.752469999999999573e+01 -3.945629999999999882e+02
1.761580000000000013e+01 6.492140000000000555e+01 -3.947400000000000091e+02
-1.742940000000000111e+01 1.038179999999999978e+02 -3.961730000000000018e+02
-2.003069999999999951e+01 1.036659999999999968e+02 -3.963480000000000132e+02
-2.000969999999999871e+01 1.009860000000000042e+02 -3.938570000000000277e+02
-1.746020000000000039e+01 1.009819999999999993e+02 -3.938260000000000218e+02
5.200770000000000337e+00 5.927310000000000301e+00 -3.844409999999999741e+02
5.292390000000000150e+00 6.684319999999999595e+00 -3.864460000000000264e+02
2.412360000000000060e+00 6.602439999999999642e+00 -3.862830000000000155e+02
2.571779999999999955e+00 5.567459999999999631e+00 -3.844359999999999786e+02
4.929899999999999949e+00 8.166389999999999816e+00 -3.902169999999999845e+02
2.480440000000000200e+00 8.364319999999999311e+00 -3.895280000000000200e+02
-1.245439999999999969e+01 -2.769690000000000207e+00 -7.147730000000000246e+02
-1.247320000000000029e+01 -4.695879999999999832e+00 -7.145729999999999791e+02
-1.566649999999999920e+01 -5.017459999999999809e+00 -7.140599999999999454e+02
-1.566980000000000040e+01 -2.515099999999999891e+00 -7.140389999999999873e+02
-2.756459999999999866e+01 -7.474219999999999864e+00 -7.104640000000000555e+02
-2.774230000000000018e+01 -1.076239999999999952e+01 -7.077129999999999654e+02
-3.013449999999999918e+01 -9.566860000000000142e+00 -7.076609999999999445e+02
-3.096330000000000027e+01 -7.465040000000000120e+00 -7.086130000000000564e+02
-2.511690000000000111e+01 -1.007510000000000083e+01 -7.097319999999999709e+02
-2.517920000000000158e+01 -7.594229999999999592e+00 -7.110789999999999509e+02
-2.330649999999999977e+01 -8.374240000000000350e+00 -7.113039999999999736e+02
-2.242530000000000001e+01 -9.856909999999999172e+00 -7.104370000000000118e+02
-1.005780000000000030e+01 -1.044539999999999935e+01 -7.100480000000000018e+02
-7.542480000000000295e+00 -9.435560000000000613e+00 -7.100339999999999918e+02
-7.370140000000000136e+00 -1.071279999999999966e+01 -7.082619999999999436e+02
-9.097789999999999822e+00 -1.120570000000000022e+01 -7.086609999999999445e+02
-2.513560000000000016e+01 6.377439999999999498e-02 -7.109640000000000555e+02
-2.501970000000000027e+01 2.545370000000000132e+00 -7.097630000000000337e+02
-2.246229999999999905e+01 2.437920000000000087e+00 -7.105850000000000364e+02
-2.329309999999999903e+01 8.305029999999999912e-01 -7.112809999999999491e+02
-4.164930000000000021e+00 7.641000000000000014e-01 -7.111900000000000546e+02
-4.936029999999999696e+00 2.529669999999999863e+00 -7.107899999999999636e+02
-2.538930000000000131e+00 2.445359999999999978e+00 -7.096470000000000482e+02
-2.585129999999999928e+00 -3.592920000000000141e-02 -7.105919999999999845e+02
-1.172879999999999967e+01 6.262579999999999814e+00 -7.086520000000000437e+02
-1.252839999999999954e+01 5.323710000000000164e+00 -7.096689999999999827e+02
-1.502549999999999919e+01 5.190830000000000055e+00 -7.099519999999999982e+02
-1.501539999999999964e+01 7.547220000000000262e+00 -7.075560000000000400e+02
-1.257649999999999935e+01 7.489080000000000403e+00 -7.074950000000000045e+02
-2.505519999999999925e+01 -1.323230000000000040e+01 -7.056879999999999882e+02
-2.325679999999999836e+01 -1.349699999999999989e+01 -7.059400000000000546e+02
-2.241610000000000014e+01 -1.438649999999999984e+01 -7.049009999999999536e+02
-2.250580000000000069e+01 -1.572550000000000026e+01 -7.026219999999999573e+02
-2.490190000000000126e+01 -1.493919999999999959e+01 -7.024610000000000127e+02
-1.994320000000000093e+01 -1.493069999999999986e+01 -7.049850000000000136e+02
-1.751370000000000005e+01 -1.514550000000000018e+01 -7.051470000000000482e+02
-1.750379999999999825e+01 -1.611520000000000152e+01 -7.033809999999999718e+02
-1.998839999999999861e+01 -1.596250000000000036e+01 -7.032380000000000564e+02
-1.508360000000000056e+01 -1.506090000000000018e+01 -7.051359999999999673e+02
-1.251079999999999970e+01 -1.477040000000000042e+01 -7.052699999999999818e+02
-1.247170000000000023e+01 -1.599990000000000023e+01 -7.033750000000000000e+02
-1.498750000000000071e+01 -1.605120000000000147e+01 -7.033890000000000100e+02
-9.852019999999999555e+00 -1.333799999999999919e+01 -7.057709999999999582e+02
-7.572840000000000238e+00 -1.289920000000000044e+01 -7.049080000000000155e+02
-6.694950000000000401e+00 -1.366230000000000011e+01 -7.034230000000000018e+02
-7.681429999999999758e+00 -1.494439999999999991e+01 -7.023569999999999709e+02
-1.011550000000000082e+01 -1.551239999999999952e+01 -7.029619999999999891e+02
-3.506860000000000355e+01 -4.889280000000000292e+00 -7.049719999999999800e+02
-3.606450000000000244e+01 -5.070669999999999789e+00 -7.027880000000000109e+02
-3.625249999999999773e+01 -2.462660000000000071e+00 -7.033920000000000528e+02
-3.535029999999999717e+01 -2.570980000000000043e+00 -7.052150000000000318e+02
2.628950000000000120e+00 -5.017859999999999765e+00 -7.026749999999999545e+02
1.636090000000000044e+00 -4.791870000000000296e+00 -7.047859999999999445e+02
2.320530000000000204e+00 -2.407300000000000217e+00 -7.048250000000000455e+02
3.316769999999999996e+00 -2.509959999999999969e+00 -7.026359999999999673e+02
-3.499380000000000024e+01 2.436370000000000147e+00 -7.025470000000000255e+02
-3.328869999999999862e+01 3.234039999999999804e+00 -7.032920000000000300e+02
-3.240240000000000009e+01 2.400920000000000165e+00 -7.048550000000000182e+02
-3.321659999999999968e+01 7.205000000000000293e-01 -7.057390000000000327e+02
-3.458220000000000027e+01 -5.111790000000000084e-02 -7.051050000000000182e+02
-3.595649999999999835e+01 3.760920000000000235e-02 -7.033310000000000173e+02
3.584210000000000118e+00 -1.957750000000000115e-02 -7.030510000000000446e+02
2.768979999999999997e+00 -7.076210000000000312e-03 -7.050049999999999955e+02
3.107219999999999871e+00 2.563520000000000021e+00 -7.050689999999999600e+02
3.551260000000000083e+00 2.522390000000000132e+00 -7.025299999999999727e+02
-2.766519999999999868e+01 5.700179999999999580e+00 -7.057480000000000473e+02
-2.983640000000000114e+01 4.810590000000000366e+00 -7.047839999999999918e+02
-3.067689999999999984e+01 5.707440000000000069e+00 -7.032200000000000273e+02
-2.985820000000000007e+01 7.359969999999999679e+00 -7.023650000000000091e+02
-2.764590000000000103e+01 8.223140000000000782e+00 -7.032329999999999472e+02
2.720000000000000195e+00 5.009470000000000312e+00 -7.025330000000000155e+02
1.945529999999999982e+00 4.922769999999999868e+00 -7.048899999999999864e+02
1.798379999999999979e-01 5.832919999999999661e+00 -7.058519999999999754e+02
2.015780000000000072e-01 8.258929999999999438e+00 -7.025620000000000118e+02
-3.018120000000000047e+01 -1.321490000000000009e+01 -7.000650000000000546e+02
-2.859639999999999915e+01 -1.381520000000000081e+01 -7.009650000000000318e+02
-2.753620000000000090e+01 -1.473259999999999970e+01 -7.001259999999999764e+02
-2.760640000000000072e+01 -1.576229999999999976e+01 -6.976699999999999591e+02
-3.079220000000000113e+01 -1.342450000000000010e+01 -6.976589999999999918e+02
-4.905509999999999593e+00 -1.524709999999999965e+01 -7.001490000000000009e+02
-3.940259999999999874e+00 -1.387589999999999968e+01 -7.011050000000000182e+02
-2.351069999999999993e+00 -1.322879999999999967e+01 -7.002480000000000473e+02
-1.438280000000000003e+00 -1.371589999999999954e+01 -6.985670000000000073e+02
-2.356520000000000170e+00 -1.523850000000000016e+01 -6.976440000000000055e+02
-4.137100000000000222e+00 -1.594909999999999961e+01 -6.984130000000000109e+02
-3.316400000000000148e+01 -1.067830000000000013e+01 -7.001409999999999627e+02
-3.346059999999999945e+01 -1.098129999999999917e+01 -6.983440000000000509e+02
-3.468240000000000123e+01 -1.015559999999999974e+01 -6.975890000000000555e+02
-3.610909999999999798e+01 -8.399869999999999948e+00 -6.977250000000000227e+02
-3.581230000000000047e+01 -7.619650000000000034e+00 -7.001140000000000327e+02
5.164389999999999814e-01 -1.049070000000000036e+01 -7.000900000000000318e+02
2.864360000000000017e+00 -7.327679999999999971e+00 -6.999809999999999945e+02
3.241210000000000147e+00 -8.146160000000000068e+00 -6.981989999999999554e+02
2.569640000000000146e+00 -1.005279999999999951e+01 -6.975410000000000537e+02
1.170239999999999947e+00 -1.113020000000000032e+01 -6.985370000000000346e+02
-3.246809999999999974e+01 7.483340000000000103e+00 -6.999850000000000136e+02
-3.330870000000000175e+01 5.811709999999999710e+00 -7.008300000000000409e+02
-3.499770000000000181e+01 5.041120000000000267e+00 -7.000739999999999554e+02
-3.577949999999999875e+01 5.816819999999999879e+00 -6.983490000000000464e+02
-3.492360000000000042e+01 7.449340000000000295e+00 -6.974569999999999936e+02
-3.331700000000000017e+01 8.326180000000000803e+00 -6.983160000000000309e+02
3.101799999999999891e+00 5.083020000000000316e+00 -6.975059999999999718e+02
2.802220000000000155e+00 5.154720000000000191e+00 -7.001230000000000473e+02
6.544790000000000330e-01 8.294850000000000279e+00 -7.001570000000000391e+02
1.008599999999999941e+00 8.602850000000000108e+00 -6.983469999999999800e+02
1.984690000000000065e+00 7.529010000000000424e+00 -6.975109999999999673e+02
-2.990009999999999835e+01 9.919890000000000541e+00 -6.999189999999999827e+02
-3.076239999999999952e+01 1.082220000000000049e+01 -6.983210000000000264e+02
-2.993959999999999866e+01 1.247070000000000078e+01 -6.974640000000000555e+02
-2.764359999999999928e+01 1.324089999999999989e+01 -6.982340000000000373e+02
-2.764079999999999870e+01 1.072889999999999944e+01 -7.007259999999999991e+02
-4.074069999999999858e+00 1.130710000000000015e+01 -7.009710000000000036e+02
-4.967609999999999637e+00 1.224530000000000030e+01 -6.999959999999999809e+02
-4.781399999999999650e+00 1.334779999999999944e+01 -6.977100000000000364e+02
-2.621360000000000134e+00 1.192709999999999937e+01 -6.974099999999999682e+02
-1.723289999999999988e+00 1.086139999999999972e+01 -6.982390000000000327e+02
-2.308190000000000186e+00 1.081910000000000061e+01 -7.001810000000000400e+02
-2.508279999999999887e+01 -1.814770000000000039e+01 -6.950890000000000555e+02
-2.332250000000000156e+01 -1.866519999999999868e+01 -6.958540000000000418e+02
-2.241469999999999985e+01 -1.954240000000000066e+01 -6.948830000000000382e+02
-2.256919999999999860e+01 -2.033370000000000033e+01 -6.926929999999999836e+02
-2.481790000000000163e+01 -1.947429999999999950e+01 -6.924099999999999682e+02
-2.582460000000000022e+01 -1.856419999999999959e+01 -6.932789999999999964e+02
-2.001950000000000074e+01 -2.022919999999999874e+01 -6.949510000000000218e+02
-1.759710000000000107e+01 -2.036670000000000158e+01 -6.950700000000000500e+02
-1.763240000000000052e+01 -2.123969999999999914e+01 -6.933110000000000355e+02
-2.005930000000000035e+01 -2.091949999999999932e+01 -6.926870000000000118e+02
-1.006300000000000061e+01 -2.048440000000000083e+01 -6.948769999999999527e+02
-7.443880000000000052e+00 -1.969480000000000075e+01 -6.950720000000000027e+02
-7.382139999999999702e+00 -2.075949999999999918e+01 -6.931369999999999436e+02
-9.211460000000000647e+00 -2.108220000000000027e+01 -6.934099999999999682e+02
-4.816270000000000273e+00 -1.832199999999999918e+01 -6.957709999999999582e+02
-2.631969999999999921e+00 -1.737750000000000128e+01 -6.949030000000000200e+02
-1.897199999999999998e+00 -1.806650000000000134e+01 -6.931059999999999945e+02
-2.732880000000000198e+00 -1.919950000000000045e+01 -6.922839999999999918e+02
-5.070949999999999847e+00 -2.037470000000000070e+01 -6.923890000000000100e+02
-3.884590000000000265e-02 -1.507649999999999935e+01 -6.950040000000000191e+02
8.276909999999999545e-01 -1.343169999999999931e+01 -6.958089999999999691e+02
1.916549999999999976e+00 -1.256819999999999915e+01 -6.949420000000000073e+02
3.055890000000000217e+00 -1.267570000000000086e+01 -6.925960000000000036e+02
1.700250000000000039e+00 -1.481049999999999933e+01 -6.923509999999999991e+02
5.896329999999999627e-01 -1.569999999999999929e+01 -6.931470000000000482e+02
-3.832580000000000098e+01 -5.610120000000000218e+00 -6.950960000000000036e+02
-3.853439999999999799e+01 -5.870129999999999626e+00 -6.932699999999999818e+02
-3.928909999999999769e+01 -4.784950000000000259e+00 -6.924210000000000491e+02
-4.019599999999999795e+01 -2.477559999999999985e+00 -6.925890000000000555e+02
-3.968240000000000123e+01 -2.295119999999999827e+00 -6.947150000000000318e+02
-4.013360000000000127e+01 -6.880469999999999642e-02 -6.948819999999999482e+02
-4.070490000000000208e+01 -4.342120000000000007e-02 -6.928269999999999982e+02
-4.061910000000000309e+01 2.547260000000000080e+00 -6.928940000000000055e+02
-3.955709999999999837e+01 2.488640000000000185e+00 -6.949829999999999472e+02
-3.735390000000000299e+01 7.361489999999999867e+00 -6.949170000000000300e+02
-3.835960000000000036e+01 5.157569999999999766e+00 -6.957730000000000246e+02
-4.009899999999999665e+01 4.973620000000000374e+00 -6.926090000000000373e+02
-3.929460000000000264e+01 7.350100000000000300e+00 -6.923740000000000236e+02
-3.821849999999999881e+01 8.213369999999999393e+00 -6.932609999999999673e+02
3.804879999999999818e+00 5.990770000000000373e+00 -6.933400000000000318e+02
3.450959999999999805e+00 5.720950000000000202e+00 -6.951390000000000100e+02
2.484799999999999898e+00 7.501290000000000013e+00 -6.950270000000000437e+02
2.982680000000000220e+00 7.489069999999999894e+00 -6.924919999999999618e+02
-3.494019999999999726e+01 9.928179999999999339e+00 -6.949379999999999882e+02
-3.581309999999999860e+01 1.079039999999999999e+01 -6.933170000000000073e+02
-3.498839999999999861e+01 1.248390000000000022e+01 -6.925019999999999527e+02
-3.326380000000000337e+01 1.328020000000000067e+01 -6.932870000000000346e+02
-3.246399999999999864e+01 1.247830000000000084e+01 -6.949819999999999709e+02
-3.327600000000000335e+01 1.077599999999999980e+01 -6.957839999999999918e+02
-2.765109999999999957e+01 1.575070000000000014e+01 -6.957440000000000282e+02
-2.984499999999999886e+01 1.484989999999999988e+01 -6.948529999999999518e+02
-3.061990000000000123e+01 1.566029999999999944e+01 -6.931720000000000255e+02
-2.980330000000000013e+01 1.729860000000000042e+01 -6.923120000000000118e+02
-2.764969999999999928e+01 1.822560000000000002e+01 -6.932440000000000282e+02
-9.127950000000000230e+00 1.631510000000000105e+01 -6.960299999999999727e+02
-1.001909999999999989e+01 1.728999999999999915e+01 -6.951180000000000518e+02
-9.860369999999999635e+00 1.839780000000000015e+01 -6.932820000000000391e+02
-7.566930000000000156e+00 1.763129999999999953e+01 -6.924950000000000045e+02
-6.495169999999999888e+00 1.645100000000000051e+01 -6.935299999999999727e+02
-7.277940000000000076e+00 1.597920000000000051e+01 -6.952899999999999636e+02
-3.498629999999999995e+01 -1.248129999999999917e+01 -6.899679999999999609e+02
-3.347720000000000340e+01 -1.339550000000000018e+01 -6.908099999999999454e+02
-3.256669999999999732e+01 -1.447499999999999964e+01 -6.900009999999999764e+02
-3.250679999999999836e+01 -1.550839999999999996e+01 -6.874819999999999709e+02
-3.549080000000000013e+01 -1.299029999999999951e+01 -6.874700000000000273e+02
-3.982650000000000290e+01 -4.831690000000000040e+00 -6.899850000000000136e+02
-4.062149999999999750e+01 -5.043770000000000309e+00 -6.875869999999999891e+02
-4.113669999999999760e+01 -3.234609999999999985e+00 -6.882559999999999718e+02
-4.083910000000000196e+01 -2.496910000000000185e+00 -6.900940000000000509e+02
7.116629999999999789e+00 -4.893950000000000244e+00 -6.874089999999999918e+02
6.608030000000000292e+00 -4.815649999999999764e+00 -6.896670000000000300e+02
6.841289999999999871e+00 -2.640299999999999869e+00 -6.895829999999999700e+02
7.280289999999999928e+00 -2.538910000000000000e+00 -6.875240000000000009e+02
-3.753889999999999816e+01 1.253730000000000011e+01 -6.900869999999999891e+02
-3.823839999999999861e+01 1.074329999999999963e+01 -6.908120000000000118e+02
-3.930960000000000321e+01 9.840569999999999595e+00 -6.899710000000000036e+02
-4.053349999999999653e+01 1.001989999999999981e+01 -6.880929999999999609e+02
-3.985470000000000113e+01 1.234600000000000009e+01 -6.874320000000000164e+02
-3.842159999999999798e+01 1.332370000000000054e+01 -6.884059999999999491e+02
7.518479999999999608e-01 1.086030000000000051e+01 -6.907899999999999636e+02
-2.171879999999999922e-01 1.242399999999999949e+01 -6.899389999999999645e+02
5.154729999999999590e-01 1.312330000000000041e+01 -6.881169999999999618e+02
1.683179999999999898e+00 1.229870000000000019e+01 -6.873730000000000473e+02
3.015109999999999957e+00 1.009570000000000078e+01 -6.876130000000000564e+02
1.718250000000000055e+00 9.903059999999999974e+00 -6.899379999999999882e+02
-3.249909999999999854e+01 1.751520000000000010e+01 -6.900650000000000546e+02
-3.327250000000000085e+01 1.578079999999999927e+01 -6.908300000000000409e+02
-3.503379999999999939e+01 1.502260000000000062e+01 -6.900670000000000073e+02
-3.601019999999999754e+01 1.597579999999999956e+01 -6.885679999999999836e+02
-3.521560000000000201e+01 1.770400000000000063e+01 -6.878250000000000455e+02
-3.345170000000000243e+01 1.846590000000000131e+01 -6.885860000000000127e+02
-5.114189999999999792e+00 1.737519999999999953e+01 -6.898899999999999864e+02
-4.370599999999999596e+00 1.806759999999999877e+01 -6.881589999999999918e+02
-2.572540000000000049e+00 1.740249999999999986e+01 -6.874450000000000500e+02
-1.596430000000000016e+00 1.589489999999999981e+01 -6.883579999999999472e+02
-2.392450000000000188e+00 1.517890000000000050e+01 -6.900969999999999800e+02
-4.057030000000000136e+00 1.616929999999999978e+01 -6.909299999999999500e+02
-2.764359999999999928e+01 2.075519999999999854e+01 -6.907759999999999536e+02
-2.993740000000000023e+01 1.998110000000000142e+01 -6.900199999999999818e+02
-3.080760000000000076e+01 2.092539999999999978e+01 -6.885009999999999764e+02
-2.993110000000000070e+01 2.248470000000000013e+01 -6.875710000000000264e+02
-2.766369999999999862e+01 2.330420000000000158e+01 -6.883840000000000146e+02
-1.415799999999999947e+01 2.123519999999999897e+01 -6.911250000000000000e+02
-1.498729999999999940e+01 2.217889999999999873e+01 -6.901689999999999827e+02
-1.480219999999999914e+01 2.345710000000000051e+01 -6.884539999999999509e+02
-1.257750000000000057e+01 2.306220000000000070e+01 -6.880270000000000437e+02
-1.234680000000000000e+01 2.088540000000000063e+01 -6.907930000000000064e+02
-6.997209999999999752e+01 -5.505480000000000018e+01 -6.831910000000000309e+02
-7.071169999999999334e+01 -5.327230000000000132e+01 -6.836649999999999636e+02
-6.978810000000000002e+01 -5.222670000000000101e+01 -6.842440000000000282e+02
-6.742289999999999850e+01 -5.223559999999999803e+01 -6.848289999999999509e+02
-6.745380000000000109e+01 -5.572030000000000172e+01 -6.834880000000000564e+02
-6.501779999999999404e+01 -5.231110000000000326e+01 -6.850280000000000200e+02
-6.251579999999999870e+01 -5.239150000000000063e+01 -6.851960000000000264e+02
-6.248409999999999798e+01 -5.581609999999999872e+01 -6.834809999999999945e+02
-6.499120000000000630e+01 -5.580610000000000070e+01 -6.835230000000000246e+02
-6.002080000000000126e+01 -5.234029999999999916e+01 -6.850190000000000055e+02
-5.758740000000000236e+01 -5.229670000000000130e+01 -6.848229999999999791e+02
-5.755780000000000030e+01 -5.548960000000000292e+01 -6.831040000000000418e+02
-5.998850000000000193e+01 -5.573120000000000118e+01 -6.833189999999999600e+02
-7.211639999999999873e+01 -4.738210000000000122e+01 -6.844310000000000400e+02
-7.218219999999999459e+01 -4.977559999999999718e+01 -6.841680000000000064e+02
-7.324530000000000030e+01 -5.071200000000000330e+01 -6.836849999999999454e+02
-7.503740000000000521e+01 -4.996699999999999875e+01 -6.832409999999999854e+02
-7.559940000000000282e+01 -4.745250000000000057e+01 -6.834640000000000555e+02
-6.991030000000000655e+01 -4.990460000000000207e+01 -6.848600000000000136e+02
-6.998269999999999413e+01 -4.750150000000000006e+01 -6.849740000000000464e+02
-6.761109999999999332e+01 -4.756589999999999918e+01 -6.855180000000000291e+02
-6.755370000000000630e+01 -5.003059999999999974e+01 -6.852960000000000491e+02
-6.508509999999999707e+01 -5.008659999999999712e+01 -6.855080000000000382e+02
-6.518940000000000623e+01 -4.766550000000000153e+01 -6.859070000000000391e+02
-6.261820000000000164e+01 -4.765350000000000108e+01 -6.861910000000000309e+02
-6.261860000000000070e+01 -5.016389999999999816e+01 -6.857129999999999654e+02
-5.500800000000000267e+01 -5.002839999999999776e+01 -6.857169999999999845e+02
-5.431179999999999808e+01 -4.824839999999999662e+01 -6.861960000000000264e+02
-5.235999999999999943e+01 -4.772769999999999868e+01 -6.860660000000000309e+02
-5.237030000000000030e+01 -5.010179999999999723e+01 -6.854160000000000537e+02
-4.996540000000000248e+01 -4.989900000000000091e+01 -6.849829999999999472e+02
-4.980760000000000076e+01 -4.779019999999999868e+01 -6.856459999999999582e+02
-4.746889999999999787e+01 -4.756239999999999668e+01 -6.851409999999999627e+02
-4.764779999999999660e+01 -4.979220000000000113e+01 -6.841470000000000482e+02
-7.214950000000000330e+01 -4.261569999999999681e+01 -6.844560000000000173e+02
-7.215680000000000405e+01 -4.501080000000000325e+01 -6.845309999999999491e+02
-7.569519999999999982e+01 -4.499900000000000233e+01 -6.835280000000000200e+02
-7.557170000000000698e+01 -4.258010000000000161e+01 -6.833440000000000509e+02
-7.002150000000000318e+01 -4.502600000000000335e+01 -6.850789999999999509e+02
-7.007319999999999993e+01 -4.251539999999999964e+01 -6.851190000000000282e+02
-6.781900000000000261e+01 -4.251570000000000249e+01 -6.857619999999999436e+02
-6.768609999999999616e+01 -4.504950000000000188e+01 -6.856749999999999545e+02
-4.501370000000000005e+01 -4.493180000000000263e+01 -6.850230000000000246e+02
-4.492179999999999751e+01 -4.249519999999999698e+01 -6.851290000000000191e+02
-4.287149999999999750e+01 -4.240769999999999840e+01 -6.844109999999999445e+02
-4.275630000000000308e+01 -4.480440000000000111e+01 -6.842419999999999618e+02
-7.002460000000000662e+01 -4.001370000000000005e+01 -6.849039999999999964e+02
-6.987550000000000239e+01 -3.752810000000000201e+01 -6.847279999999999518e+02
-6.779649999999999466e+01 -3.749230000000000018e+01 -6.853999999999999773e+02
-6.785819999999999652e+01 -3.998329999999999984e+01 -6.856050000000000182e+02
-4.908400000000000318e+01 -3.925310000000000343e+01 -6.863460000000000036e+02
-4.916949999999999932e+01 -3.735940000000000083e+01 -6.862640000000000100e+02
-4.712460000000000093e+01 -3.742300000000000182e+01 -6.856459999999999582e+02
-4.735750000000000171e+01 -4.002559999999999718e+01 -6.858809999999999718e+02
-4.491020000000000323e+01 -4.000860000000000127e+01 -6.851390000000000100e+02
-4.495420000000000016e+01 -3.750900000000000034e+01 -6.849909999999999854e+02
-4.266290000000000049e+01 -3.757119999999999749e+01 -6.842980000000000018e+02
-4.285540000000000305e+01 -4.008979999999999677e+01 -6.844180000000000064e+02
-6.972870000000000346e+01 -3.509340000000000259e+01 -6.845370000000000346e+02
-6.980989999999999895e+01 -3.257419999999999760e+01 -6.842140000000000555e+02
-6.752819999999999823e+01 -3.250730000000000075e+01 -6.849779999999999518e+02
-6.768869999999999720e+01 -3.499450000000000216e+01 -6.852100000000000364e+02
-4.931300000000000239e+01 -3.502559999999999718e+01 -6.861960000000000264e+02
-4.981009999999999849e+01 -3.251489999999999725e+01 -6.860489999999999782e+02
-4.729860000000000042e+01 -3.247829999999999728e+01 -6.854619999999999891e+02
-4.720159999999999911e+01 -3.496650000000000347e+01 -6.855520000000000209e+02
-4.506700000000000017e+01 -3.501270000000000238e+01 -6.849059999999999491e+02
-4.517320000000000135e+01 -3.257180000000000319e+01 -6.848220000000000027e+02
-4.197610000000000241e+01 -3.255210000000000292e+01 -6.830529999999999973e+02
-4.171179999999999666e+01 -3.484239999999999782e+01 -6.833869999999999436e+02
-7.082429999999999382e+01 -2.983269999999999911e+01 -6.834990000000000236e+02
-7.055169999999999675e+01 -2.753300000000000125e+01 -6.831539999999999964e+02
-6.724890000000000612e+01 -2.758739999999999881e+01 -6.846250000000000000e+02
-6.735080000000000666e+01 -3.002919999999999945e+01 -6.847469999999999573e+02
-6.526340000000000430e+01 -2.992210000000000036e+01 -6.855199999999999818e+02
-6.518030000000000257e+01 -2.746760000000000090e+01 -6.853890000000000100e+02
-6.267790000000000106e+01 -2.750619999999999976e+01 -6.860270000000000437e+02
-6.318900000000000006e+01 -2.992190000000000083e+01 -6.861490000000000009e+02
-4.957419999999999760e+01 -2.991410000000000124e+01 -6.858469999999999800e+02
-4.956909999999999883e+01 -2.746089999999999876e+01 -6.857939999999999827e+02
-4.744469999999999743e+01 -2.748410000000000153e+01 -6.851939999999999600e+02
-4.734729999999999706e+01 -2.998079999999999856e+01 -6.853220000000000027e+02
-6.513020000000000209e+01 -2.498059999999999903e+01 -6.852690000000000055e+02
-6.501139999999999475e+01 -2.247749999999999915e+01 -6.851069999999999709e+02
-6.290550000000000352e+01 -2.245410000000000039e+01 -6.857300000000000182e+02
-6.293750000000000000e+01 -2.489720000000000155e+01 -6.859180000000000064e+02
-4.960229999999999961e+01 -2.498699999999999832e+01 -6.856970000000000027e+02
-4.960620000000000118e+01 -2.248949999999999960e+01 -6.856699999999999591e+02
-4.757950000000000301e+01 -2.248130000000000095e+01 -6.849640000000000555e+02
-4.754090000000000060e+01 -2.498229999999999862e+01 -6.850839999999999463e+02
-1.972569999999999979e+01 -2.425100000000000122e+01 -6.847229999999999563e+02
-1.739089999999999847e+01 -2.472269999999999968e+01 -6.846970000000000027e+02
